ncols	251
nrows	32
xllcorner	29.80263159
yllcorner	82.453947399
cellsize	0.993421053																																																																																																																																																						
810.4000244	811.5209961	810.789978	803.7189941	805.6989746	818.4160156	823.5150146	821.4140015	820.3339844	827.7000122	823.1959839	831.617981	826.7559814	826.2719727	822.2540283	823.1569824	822.9089966	830.0999756	830.0419922	835.7600098	842.2579956	826.3359985	829.0150146	833.3530273	833.9260254	840.2009888	837.6539917	836.2030029	839.9810181	826.7620239	830.0800171	823.5029907	823.4940186	833.2199707	837.1749878	827.1129761	829.4619751	828.9169922	833.3079834	830.0419922	839.9619751	839.1519775	839.0739746	830.1849976	879.0020142	884.9559937	891.8099976	890.9190063	886.052002	879.2960205	893.2630005	836.6229858	839.8829956	873.9530029	872.8850098	841.8499756	859.0650024	854.9719849	830.2290039	839.8880005	840.3889771	840.2960205	830.125	853.5869751	855.7520142	863.4249878	839.5670166	863.6409912	858.8369751	859.6929932	839.3150024	836.7969971	836.0780029	862.8389893	863.9949951	862.2449951	862.7880249	859.3359985	842.7860107	830.5670166	850.5410156	833.2780151	837.3109741	829.9589844	833.9829712	836.4940186	827.4539795	837.2769775	837.3189697	833.1259766	839.2869873	836.3510132	831.7180176	836.2689819	849.3250122	861.1099854	859.7470093	865.9329834	878.1300049	891.1619873	892.315979	899.0170288	898.7280273	905.0910034	912.5059814	905.4470215	905.0869751	892.2139893	879.4089966	879.9780273	879.401001	863.5079956	843.0889893	836.8720093	839.9749756	826.9489746	835.0479736	836.6040039	830.0419922	813.065979	823.4810181	809.973999	792.9710083	801.2579956	807.7230225	809.3270264	807.0529785	806.4500122	807.302002	807.2559814	808.4320068	810.3579712	807.7189941	807.3339844	803.9349976	793.9370117	806.6220093	802.2059937	810.5709839	809.71698	803.7960205	805.6710205	802.0789795	801.5219727	800.2579956	810.3670044	793.7139893	806.8109741	800.8829956	801.257019	793.8649902	801.1740112	810.4000244	811.5209961	810.789978	803.7189941	805.6989746	818.4160156	823.5150146	821.4140015	820.3339844	827.7000122	823.1959839	831.617981	826.7559814	826.2719727	822.2540283	823.1569824	822.9089966	830.0999756	830.0419922	835.7600098	842.2579956	826.3359985	829.0150146	833.3530273	833.9260254	840.2009888	837.6539917	836.2030029	839.9810181	826.7620239	830.0800171	823.5029907	823.4940186	833.2199707	837.1749878	827.1129761	829.4619751	828.9169922	833.3079834	830.0419922	839.9619751	839.1519775	839.0739746	830.1849976	879.0020142	884.9559937	891.8099976	890.9190063	886.052002	879.2960205	893.2630005	836.6229858	839.8829956	873.9530029	872.8850098	841.8499756	859.0650024	854.9719849	830.2290039	839.8880005	840.3889771	840.2960205	830.125	853.5869751	855.7520142	863.4249878	839.5670166	863.6409912	858.8369751	859.6929932	839.3150024	836.7969971	836.0780029	862.8389893	863.9949951	862.2449951	862.7880249	859.3359985	842.7860107	830.5670166	850.5410156	833.2780151	837.3109741	829.9589844	833.9829712	836.4940186	827.4539795	837.2769775	837.3189697	833.1259766	839.2869873	836.3510132	831.7180176	836.2689819	849.3250122	861.1099854	859.7470093	865.9329834	878.1300049
793.9429932	803.6900024	810.3400269	810.367981	816.9210205	808.9229736	820.4219971	819.177002	830.0239868	829.6240234	815.4920044	824.6950073	824.5100098	825.1450195	826.9840088	836.5670166	839.9420166	830.0419922	828.4580078	839.8850098	830.0609741	832.9470215	836.6040039	838.1749878	839.5640259	833.8359985	842.5770264	840.1450195	839.7670288	843.1779785	833.322998	826.4650269	829.9799805	830.0430298	826.7600098	829.6279907	833.322998	840.6129761	829.7620239	833.0079956	842.2719727	853.6500244	839.2410278	846.0300293	859.1929932	878.0910034	891.4559937	891.6859741	893.3200073	893.2440186	891.4429932	885.8670044	885.401001	836.4210205	836.1810303	836.6090088	853.9829712	836.6079712	843.598999	839.0709839	840.039978	844.8239746	853.2750244	845.9949951	856.4639893	863.7020264	864.8579712	856.5570068	855.7529907	857.2059937	836.1220093	843.0949707	830.0419922	836.0670166	835.4279785	843.1660156	832.6710205	836.6010132	840.1220093	832.9019775	833.322998	826.7620239	839.8720093	830.3560181	833.322998	832.6160278	826.7709961	830.0159912	839.4699707	835.0440063	838.9710083	843.1680298	833.322998	849.7269897	835.5120239	859.9370117	839.1539917	874.6119995	879.5430298	893.2189941	891.3779907	898.6760254	898.6619873	905.4699707	913.382019	905.151001	913.1719971	905.1630249	898.882019	886.9099731	872.9589844	839.8850098	836.6040039	845.3369751	836.6259766	830.8969727	827.9509888	830.0419922	833.322998	822.4249878	823.4810181	823.4810181	807.0770264	807.1669922	800.1710205	792.9509888	806.9509888	810.1370239	805.4249878	810.6049805	810.0209961	796.9520264	810.6060181	802.1950073	810.5640259	799.7680054	799.5339966	796.848999	800.1489868	807.6149902	810.3579712	813.8920288	806.507019	810.4810181	808.4110107	802.9920044	797.7020264	799.617981	793.901001	799.6099854	801.6530151	816.4030151	793.9429932	803.6900024	810.3400269	810.367981	816.9210205	808.9229736	820.4219971	819.177002	830.0239868	829.6240234	815.4920044	824.6950073	824.5100098	825.1450195	826.9840088	836.5670166	839.9420166	830.0419922	828.4580078	839.8850098	830.0609741	832.9470215	836.6040039	838.1749878	839.5640259	833.8359985	842.5770264	840.1450195	839.7670288	843.1779785	833.322998	826.4650269	829.9799805	830.0430298	826.7600098	829.6279907	833.322998	840.6129761	829.7620239	833.0079956	842.2719727	853.6500244	839.2410278	846.0300293	859.1929932	878.0910034	891.4559937	891.6859741	893.3200073	893.2440186	891.4429932	885.8670044	885.401001	836.4210205	836.1810303	836.6090088	853.9829712	836.6079712	843.598999	839.0709839	840.039978	844.8239746	853.2750244	845.9949951	856.4639893	863.7020264	864.8579712	856.5570068	855.7529907	857.2059937	836.1220093	843.0949707	830.0419922	836.0670166	835.4279785	843.1660156	832.6710205	836.6010132	840.1220093	832.9019775	833.322998	826.7620239	839.8720093	830.3560181	833.322998	832.6160278	826.7709961	830.0159912	839.4699707	835.0440063	838.9710083	843.1680298	833.322998	849.7269897	835.5120239	859.9370117	839.1539917	874.6119995	879.5430298
797.072998	823.4990234	801.6519775	812.9050293	810.3920288	816.9869995	806.7390137	823.4810181	814.5130005	830.2839966	825.2230225	823.0949707	830.1929932	836.6279907	825.3010254	830.8930054	843.5050049	838.8289795	830.0419922	836.565979	839.9019775	836.6820068	833.3930054	837.4329834	836.4559937	841.684021	841.2260132	849.7319946	830.0029907	837.7059937	839.8850098	843.4890137	830.0419922	829.7210083	836.375	834.8200073	830.0269775	830.0360107	833.1359863	830.0029907	836.8569946	840.3599854	863.3809814	866.1069946	859.1699829	885.7769775	884.9990234	885.8189697	893.223999	891.6090088	891.5930176	885.7449951	885.7449951	836.6040039	836.8590088	863.8670044	855.6079712	859.1339722	851.8969727	838.4050293	852.8989868	853.7139893	844.5159912	843.2030029	843.09198	855.7949829	853.9849854	853.8410034	852.1989746	838.2680054	840.0479736	835.1810303	842.117981	839.072998	826.7620239	845.0739746	827.0300293	836.5819702	847.4450073	840.8510132	840.4320068	840.2139893	826.302002	826.3280029	835.7659912	829.5670166	838.2869873	826.7650146	835.9509888	826.4069824	836.598999	839.3289795	826.552002	839.7810059	859.5239868	859.8109741	829.8969727	879.460022	885.1099854	898.7180176	898.8980103	913.9349976	913.7290039	913.8790283	913.1420288	912.7999878	912.6190186	912.5349731	898.7579956	891.4199829	885.1040039	867.5339966	858.9450073	859.7109985	849.9000244	843.1660156	836.6350098	816.6450195	837.7050171	813.0679932	823.6259766	817.2540283	806.1680298	808.4450073	811.9119873	803.7919922	804.6259766	803.7960205	796.8859863	810.6220093	806.8040161	804.7030029	804.0599976	802.8010254	793.7269897	800.4860229	797.2670288	788.8800049	792.1190186	805.7800293	810.8469849	820.302002	805.7780151	804.3560181	819.4990234	820.3980103	803.6220093	792.117981	808.8930054	817.7520142	797.2680054	797.1790161	797.072998	823.4990234	801.6519775	812.9050293	810.3920288	816.9869995	806.7390137	823.4810181	814.5130005	830.2839966	825.2230225	823.0949707	830.1929932	836.6279907	825.3010254	830.8930054	843.5050049	838.8289795	830.0419922	836.565979	839.9019775	836.6820068	833.3930054	837.4329834	836.4559937	841.684021	841.2260132	849.7319946	830.0029907	837.7059937	839.8850098	843.4890137	830.0419922	829.7210083	836.375	834.8200073	830.0269775	830.0360107	833.1359863	830.0029907	836.8569946	840.3599854	863.3809814	866.1069946	859.1699829	885.7769775	884.9990234	885.8189697	893.223999	891.6090088	891.5930176	885.7449951	885.7449951	836.6040039	836.8590088	863.8670044	855.6079712	859.1339722	851.8969727	838.4050293	852.8989868	853.7139893	844.5159912	843.2030029	843.09198	855.7949829	853.9849854	853.8410034	852.1989746	838.2680054	840.0479736	835.1810303	842.117981	839.072998	826.7620239	845.0739746	827.0300293	836.5819702	847.4450073	840.8510132	840.4320068	840.2139893	826.302002	826.3280029	835.7659912	829.5670166	838.2869873	826.7650146	835.9509888	826.4069824	836.598999	839.3289795	826.552002	839.7810059	859.5239868	859.8109741	829.8969727	879.460022	885.1099854
808.0050049	810.3640137	808.875	804.7020264	818.9819946	819.9810181	813.1279907	830.0020142	823.4899902	837.1480103	820.2109985	831.2579956	829.6430054	842.992981	840.572998	828.1220093	836.4169922	840.0479736	838.7490234	837.7119751	849.7709961	843.1660156	840.4509888	836.6439819	847.90802	839.8980103	837.1220093	842.2089844	835.2789917	835.9580078	839.8850098	840.697998	835.4060059	834.0170288	837.3889771	833.322998	826.0209961	844.0419922	830.0419922	833.742981	833.3389893	836.5969849	836.6040039	853.2080078	871.9719849	884.9949951	879.3729858	891.460022	898.7310181	898.9030151	905.4790039	898.5939941	882.2849731	891.4569702	878.1799927	878.5889893	872.5789795	863.6300049	859.7210083	855.8850098	854.927002	863.6970215	859.3079834	853.3579712	843.2930298	849.7269897	839.8850098	845.1959839	849.7230225	854.302002	853.1699829	840.8569946	826.4899902	837.0230103	840.6409912	836.5980225	835.1400146	839.8850098	848.5570068	847.4530029	842.434021	846.4459839	837.1779785	842.5479736	826.7579956	823.507019	831.8889771	836.6229858	836.6259766	836.6040039	833.3389893	828.2490234	847.4379883	843.6010132	856.1069946	855.9970093	836.6040039	868.5360107	891.4569702	891.4459839	905.1489868	905.5460205	918.8939819	918.8939819	921.8569946	913.6879883	912.8170166	905.0830078	892.4450073	890.960022	885.7579956	863.6350098	863.6370239	842.7529907	836.6989746	827.5750122	833.322998	833.4710083	827.0170288	829.7750244	808.9240112	826.7620239	793.4509888	798.2020264	810.3880005	808.2009888	798.9439697	807.6069946	810.3579712	806.9790039	797.2089844	806.6170044	810.4970093	809.9580078	813.8930054	809.8010254	808.7700195	793.7210083	803.7960205	803.473999	809.4660034	806.6170044	807.742981	793.9580078	810.3579712	793.7290039	803.7960205	800.0750122	799.75	803.1030273	801.973999	797.2059937	808.0050049	810.3640137	808.875	804.7020264	818.9819946	819.9810181	813.1279907	830.0020142	823.4899902	837.1480103	820.2109985	831.2579956	829.6430054	842.992981	840.572998	828.1220093	836.4169922	840.0479736	838.7490234	837.7119751	849.7709961	843.1660156	840.4509888	836.6439819	847.90802	839.8980103	837.1220093	842.2089844	835.2789917	835.9580078	839.8850098	840.697998	835.4060059	834.0170288	837.3889771	833.322998	826.0209961	844.0419922	830.0419922	833.742981	833.3389893	836.5969849	836.6040039	853.2080078	871.9719849	884.9949951	879.3729858	891.460022	898.7310181	898.9030151	905.4790039	898.5939941	882.2849731	891.4569702	878.1799927	878.5889893	872.5789795	863.6300049	859.7210083	855.8850098	854.927002	863.6970215	859.3079834	853.3579712	843.2930298	849.7269897	839.8850098	845.1959839	849.7230225	854.302002	853.1699829	840.8569946	826.4899902	837.0230103	840.6409912	836.5980225	835.1400146	839.8850098	848.5570068	847.4530029	842.434021	846.4459839	837.1779785	842.5479736	826.7579956	823.507019	831.8889771	836.6229858	836.6259766	836.6040039	833.3389893	828.2490234	847.4379883	843.6010132	856.1069946	855.9970093	836.6040039	868.5360107	891.4569702
817.3569946	803.5430298	811.1890259	817.0170288	806.1779785	824.8309937	820.2080078	823.0440063	825.8610229	830.5980225	840.1270142	830.1810303	839.8850098	833.8779907	839.8850098	846.4459839	847.8070068	836.5679932	829.2750244	839.8859863	835.7680054	853.7979736	849.7739868	839.8850098	833.322998	832.6879883	833.322998	849.3140259	833.8359985	840.7459717	846.3959961	839.8989868	841.6849976	832.8380127	839.8850098	833.8070068	827.1090088	832.1849976	826.9320068	839.5999756	839.3660278	836.4229736	856.4299927	861.9299927	863.4379883	885.7559814	887.0360107	885.1879883	891.9279785	891.4689941	891.6959839	893.1829834	891.4379883	885.8189697	872.8170166	867.1019897	864.0050049	872.8449707	854.8040161	850.0390015	851.6550293	850.5770264	851.190979	852.9810181	850.6420288	846.3950195	837.4819946	849.7709961	846.3640137	836.8239746	834.3029785	837.5130005	836.4320068	833.2930298	839.882019	839.0759888	844.8120117	843.4539795	839.8850098	836.6030273	834.65802	845.9719849	834.7130127	830.0419922	826.7620239	830.0560303	827.3579712	837.1630249	832.9979858	840.3670044	835.9500122	835.7269897	823.2700195	836.8579712	829.9869995	835.8270264	865.3239746	886.0800171	891.4050293	907.6099854	904.9719849	905.0759888	913.8920288	920.1530151	918.8950195	915.5999756	915.427002	912.5009766	905.0720215	892.3989868	892.4719849	878.289978	862.0679932	862.2709961	836.6049805	826.7310181	830.0809937	816.9219971	826.7620239	826.677002	818.0239868	813.6380005	806.2219849	810.4420166	800.2550049	806.0059814	799.5560303	806.1749878	800.0109863	797.0739746	808.8870239	803.473999	802.2059937	807.8759766	803.7089844	793.1569824	810.7810059	796.9589844	811.9119873	811.6680298	817.0809937	817.7490234	797.2009888	814.8880005	803.7960205	820.2000122	801.1309814	810.3579712	800.8809814	801.4069824	810.7810059	793.6049805	817.3569946	803.5430298	811.1890259	817.0170288	806.1779785	824.8309937	820.2080078	823.0440063	825.8610229	830.5980225	840.1270142	830.1810303	839.8850098	833.8779907	839.8850098	846.4459839	847.8070068	836.5679932	829.2750244	839.8859863	835.7680054	853.7979736	849.7739868	839.8850098	833.322998	832.6879883	833.322998	849.3140259	833.8359985	840.7459717	846.3959961	839.8989868	841.6849976	832.8380127	839.8850098	833.8070068	827.1090088	832.1849976	826.9320068	839.5999756	839.3660278	836.4229736	856.4299927	861.9299927	863.4379883	885.7559814	887.0360107	885.1879883	891.9279785	891.4689941	891.6959839	893.1829834	891.4379883	885.8189697	872.8170166	867.1019897	864.0050049	872.8449707	854.8040161	850.0390015	851.6550293	850.5770264	851.190979	852.9810181	850.6420288	846.3950195	837.4819946	849.7709961	846.3640137	836.8239746	834.3029785	837.5130005	836.4320068	833.2930298	839.882019	839.0759888	844.8120117	843.4539795	839.8850098	836.6030273	834.65802	845.9719849	834.7130127	830.0419922	826.7620239	830.0560303	827.3579712	837.1630249	832.9979858	840.3670044	835.9500122	835.7269897	823.2700195	836.8579712	829.9869995	835.8270264	865.3239746	886.0800171	891.4050293
816.7109985	797.2069702	814.2210083	807.5819702	816.6450195	823.5239868	819.065979	830.0189819	826.132019	839.8859863	842.1820068	845.2039795	839.598999	836.2219849	842.789978	843.1660156	848.8300171	847.2080078	840.3469849	847.8569946	841.4119873	847.3950195	847.8029785	854.3449707	836.6259766	835.4279785	847.4500122	849.3239746	849.8289795	849.072998	837.9810181	834.0280151	843.1370239	845.1959839	839.8729858	840.3439941	834.5969849	836.6300049	836.9769897	839.8850098	853.8289795	842.572998	863.4400024	872.7189941	874.8920288	892.0170288	891.0510254	891.2529907	898.7540283	892.8319702	898.6660156	891.3460083	891.7390137	884.9719849	886.0419922	879.4349976	879.2420044	873.1710205	865.2940063	856.1989746	846.2709961	853.7819824	852.6329956	846.4910278	839.7399902	843.1660156	840.7249756	833.8070068	833.8079834	840.039978	826.7659912	826.6820068	830.0419922	834.1970215	840.1400146	845.5079956	844.9249878	845.526001	833.2440186	839.8850098	835.4530029	833.9530029	829.9940186	826.7709961	829.697998	833.3400269	839.8850098	839.5670166	833.3449707	836.6040039	847.3309937	833.710022	833.322998	840.039978	829.4450073	849.9630127	862.2249756	872.3870239	885.7080078	881.8909912	899.1879883	901.2589722	905.1970215	912.5059814	913.3410034	915.3859863	904.901001	907.0059814	904.9869995	898.9910278	885.0059814	859.6229858	836.6229858	836.6010132	830.0419922	826.8179932	833.1690063	826.7620239	826.2670288	818.3829956	829.8939819	828.3129883	801.7009888	814.9500122	810.8499756	801.8920288	803.7520142	817.3660278	810.6119995	793.565979	799.9160156	799.0839844	809.9089966	796.9699707	807.0770264	801.6459961	810.8460083	800.1740112	806.9619751	806.9940186	806.1630249	803.6799927	820.7160034	810.815979	808.434021	820.2000122	809.2150269	809.8759766	823.3499756	816.9219971	816.9190063	810.3579712	816.7109985	797.2069702	814.2210083	807.5819702	816.6450195	823.5239868	819.065979	830.0189819	826.132019	839.8859863	842.1820068	845.2039795	839.598999	836.2219849	842.789978	843.1660156	848.8300171	847.2080078	840.3469849	847.8569946	841.4119873	847.3950195	847.8029785	854.3449707	836.6259766	835.4279785	847.4500122	849.3239746	849.8289795	849.072998	837.9810181	834.0280151	843.1370239	845.1959839	839.8729858	840.3439941	834.5969849	836.6300049	836.9769897	839.8850098	853.8289795	842.572998	863.4400024	872.7189941	874.8920288	892.0170288	891.0510254	891.2529907	898.7540283	892.8319702	898.6660156	891.3460083	891.7390137	884.9719849	886.0419922	879.4349976	879.2420044	873.1710205	865.2940063	856.1989746	846.2709961	853.7819824	852.6329956	846.4910278	839.7399902	843.1660156	840.7249756	833.8070068	833.8079834	840.039978	826.7659912	826.6820068	830.0419922	834.1970215	840.1400146	845.5079956	844.9249878	845.526001	833.2440186	839.8850098	835.4530029	833.9530029	829.9940186	826.7709961	829.697998	833.3400269	839.8850098	839.5670166	833.3449707	836.6040039	847.3309937	833.710022	833.322998	840.039978	829.4450073	849.9630127	862.2249756	872.3870239	885.7080078
806.0100098	817.9119873	813.0599976	822.8040161	809.1329956	820.1719971	833.3239746	826.7739868	825.4069824	830.0419922	820.7860107	830.4429932	845.3709717	842.1890259	843.6859741	840.9509888	848.401001	849.7180176	852.0839844	844.4810181	849.7819824	845.1129761	849.4420166	844.0390015	851.4920044	852.2410278	848.7269897	848.8209839	851.190979	849.2470093	836.6229858	842.7999878	836.8729858	842.5609741	836.5910034	843.7860107	837.0490112	844.1469727	839.8850098	850.0150146	849.9749756	843.0949707	851.7589722	865.0360107	839.8850098	839.8980103	836.6040039	836.9879761	891.4030151	898.757019	885.7869873	885.8170166	878.2080078	879.7750244	881.4229736	878.1190186	863.4249878	872.2000122	859.8380127	863.6480103	843.9279785	836.5549927	851.4169922	839.6560059	843.2509766	836.6090088	846.5209961	839.0620117	843.1660156	843.6859741	830.4169922	830.0419922	829.2689819	830.1060181	829.6729736	840.5800171	843.1669922	842.8460083	843.7280273	839.8530273	830.0189819	840.1209717	843.1459961	839.8829956	833.3250122	824.5280151	826.7620239	833.6209717	832.8469849	829.2000122	840.3389893	846.2730103	833.322998	840.0510254	829.7230225	840.0529785	840.039978	839.8239746	878.3499756	891.4719849	904.9569702	907.0670166	912.5059814	913.6589966	912.5059814	912.507019	905.526001	906.0100098	898.7180176	891.3900146	878.2160034	872.6810303	840.5130005	853.0079956	836.0130005	834.2390137	826.3029785	826.3280029	828.5969849	830.0499878	827.1519775	833.322998	819.7470093	801.7310181	830.447998	811.1619873	807.2470093	800.0380249	810.4160156	799.5280151	793.8200073	810.3579712	810.6049805	803.5620117	804.8939819	817.7949829	805.7180176	808.4140015	803.9299927	796.9650269	810.3579712	807.684021	816.9190063	820.7849731	813.6599731	820.2000122	826.6149902	816.6749878	816.4769897	810.3579712	808.4390259	810.2420044	806.0100098	817.9119873	813.0599976	822.8040161	809.1329956	820.1719971	833.3239746	826.7739868	825.4069824	830.0419922	820.7860107	830.4429932	845.3709717	842.1890259	843.6859741	840.9509888	848.401001	849.7180176	852.0839844	844.4810181	849.7819824	845.1129761	849.4420166	844.0390015	851.4920044	852.2410278	848.7269897	848.8209839	851.190979	849.2470093	836.6229858	842.7999878	836.8729858	842.5609741	836.5910034	843.7860107	837.0490112	844.1469727	839.8850098	850.0150146	849.9749756	843.0949707	851.7589722	865.0360107	839.8850098	839.8980103	836.6040039	836.9879761	891.4030151	898.757019	885.7869873	885.8170166	878.2080078	879.7750244	881.4229736	878.1190186	863.4249878	872.2000122	859.8380127	863.6480103	843.9279785	836.5549927	851.4169922	839.6560059	843.2509766	836.6090088	846.5209961	839.0620117	843.1660156	843.6859741	830.4169922	830.0419922	829.2689819	830.1060181	829.6729736	840.5800171	843.1669922	842.8460083	843.7280273	839.8530273	830.0189819	840.1209717	843.1459961	839.8829956	833.3250122	824.5280151	826.7620239	833.6209717	832.8469849	829.2000122	840.3389893	846.2730103	833.322998	840.0510254	829.7230225	840.0529785	840.039978	839.8239746	878.3499756
801.6989746	807.0579834	816.1760254	820.8859863	820.2000122	820.5800171	827.5759888	838.4210205	826.4899902	830.0419922	830.0640259	837.9609985	839.6710205	833.3779907	846.5130005	848.6099854	847.5360107	849.7269897	853.1439819	852.4320068	849.7930298	853.5839844	854.4990234	852.9869995	847.3170166	852.4450073	843.1019897	850.473999	845.9680176	848.9160156	845.4249878	844.6929932	847.5609741	843.2139893	836.6350098	843.2819824	843.2050171	845.9279785	839.9829712	853.0079956	848.598999	858.8209839	856.3829956	859.6459961	840.0390015	836.9760132	838.7999878	865.1160278	885.5560303	885.8189697	885.9160156	887.6409912	891.0239868	891.223999	885.8209839	886.1760254	878.0960083	872.9299927	863.8049927	863.651001	853.9530029	840.3980103	850.1699829	836.6350098	835.835022	834.3049927	840.1240234	833.6519775	830.1900024	833.322998	826.7739868	833.322998	833.322998	837.427002	843.6859741	843.9349976	846.322998	848.3510132	845.1560059	839.8850098	829.697998	830.7869873	830.0419922	829.7739868	834.4279785	827.7089844	837.2680054	826.7620239	832.9790039	833.8499756	827.132019	836.6439819	826.8280029	835.4199829	838.5209961	839.8850098	835.1459961	873.507019	879.2990112	886.572998	891.6630249	905.0839844	908.5880127	914.1010132	912.507019	905.8770142	906.5089722	905.0830078	904.9039917	885.7139893	872.0620117	872.8010254	839.8109741	858.6560059	842.7000122	836.5269775	829.9459839	820.4119873	830.0089722	839.8850098	826.7960205	830.0419922	815.7399902	817.3129883	809.7940063	817.3530273	800.0440063	807.0780029	820.0529785	813.9199829	809.7990112	807.3189697	816.0109863	814.6119995	811.3469849	816.9240112	805.9299927	810.3900146	812.28302	807.3010254	815.8909912	820.5139771	816.9219971	811.6550293	807.0759888	803.617981	823.5230103	819.0029907	810.3579712	810.8469849	815.7869873	816.9819946	801.6989746	807.0579834	816.1760254	820.8859863	820.2000122	820.5800171	827.5759888	838.4210205	826.4899902	830.0419922	830.0640259	837.9609985	839.6710205	833.3779907	846.5130005	848.6099854	847.5360107	849.7269897	853.1439819	852.4320068	849.7930298	853.5839844	854.4990234	852.9869995	847.3170166	852.4450073	843.1019897	850.473999	845.9680176	848.9160156	845.4249878	844.6929932	847.5609741	843.2139893	836.6350098	843.2819824	843.2050171	845.9279785	839.9829712	853.0079956	848.598999	858.8209839	856.3829956	859.6459961	840.0390015	836.9760132	838.7999878	865.1160278	885.5560303	885.8189697	885.9160156	887.6409912	891.0239868	891.223999	885.8209839	886.1760254	878.0960083	872.9299927	863.8049927	863.651001	853.9530029	840.3980103	850.1699829	836.6350098	835.835022	834.3049927	840.1240234	833.6519775	830.1900024	833.322998	826.7739868	833.322998	833.322998	837.427002	843.6859741	843.9349976	846.322998	848.3510132	845.1560059	839.8850098	829.697998	830.7869873	830.0419922	829.7739868	834.4279785	827.7089844	837.2680054	826.7620239	832.9790039	833.8499756	827.132019	836.6439819	826.8280029	835.4199829	838.5209961	839.8850098	835.1459961	873.507019	879.2990112
817.1970215	806.7969971	813.6380005	826.3740234	820.8540039	830.0419922	826.5289917	826.8380127	830.0560303	843.1500244	841.1030273	839.8850098	836.6160278	846.5549927	847.1119995	851.1829834	851.3280029	853.7949829	853.8120117	852.4959717	858.9199829	849.7700195	836.6040039	849.6799927	852.2479858	849.7269897	852.6119995	845.507019	849.7800293	849.723999	847.7910156	849.7819824	833.9069824	849.7269897	843.276001	843.1660156	849.75	849.3179932	847.0570068	853.0079956	843.7269897	853.0079956	856.0499878	863.6900024	840.5189819	835.8920288	868.3120117	880.0839844	885.9970093	878.1040039	884.9569702	878.90802	873.3140259	891.177002	879.5560303	871.8850098	872.1749878	860.0339966	836.5579834	853.0079956	847.7249756	852.9219971	845.1920166	836.4379883	843.1660156	839.8850098	826.6420288	833.1359863	830.4310303	830.2310181	828.6099854	833.9589844	836.2009888	842.9359741	836.6040039	841.6610107	842.572998	833.3439941	833.3530273	846.3829956	829.7349854	833.3170166	839.8850098	829.7249756	839.8889771	826.7960205	836.5980225	838.184021	833.315979	836.6049805	845.3209839	836.4379883	826.5280151	834.6500244	856.3049927	859.8270264	860.8649902	866.7329712	862.0770264	885.7479858	885.914978	898.7009888	889.0549927	898.7139893	898.6259766	898.9619751	905.1170044	898.8809814	902.559021	885.9060059	866.3779907	863.6329956	842.7009888	833.3109741	845.9760132	840.0549927	830.4459839	833.322998	833.6480103	826.7620239	834.3610229	836.7490234	823.3980103	820.2050171	806.4450073	796.7540283	813.2310181	813.6409912	817.7509766	823.9500122	805.6900024	810.1140137	803.6820068	806.6450195	814.3209839	816.2819824	820.5739746	809.0230103	810.3870239	810.7960205	806.875	809.9840088	806.8400269	803.7960205	810.3579712	802.190979	806.0020142	823.5960083	820.2109985	809.0280151	822.1669922	816.2290039	817.1970215	806.7969971	813.6380005	826.3740234	820.8540039	830.0419922	826.5289917	826.8380127	830.0560303	843.1500244	841.1030273	839.8850098	836.6160278	846.5549927	847.1119995	851.1829834	851.3280029	853.7949829	853.8120117	852.4959717	858.9199829	849.7700195	836.6040039	849.6799927	852.2479858	849.7269897	852.6119995	845.507019	849.7800293	849.723999	847.7910156	849.7819824	833.9069824	849.7269897	843.276001	843.1660156	849.75	849.3179932	847.0570068	853.0079956	843.7269897	853.0079956	856.0499878	863.6900024	840.5189819	835.8920288	868.3120117	880.0839844	885.9970093	878.1040039	884.9569702	878.90802	873.3140259	891.177002	879.5560303	871.8850098	872.1749878	860.0339966	836.5579834	853.0079956	847.7249756	852.9219971	845.1920166	836.4379883	843.1660156	839.8850098	826.6420288	833.1359863	830.4310303	830.2310181	828.6099854	833.9589844	836.2009888	842.9359741	836.6040039	841.6610107	842.572998	833.3439941	833.3530273	846.3829956	829.7349854	833.3170166	839.8850098	829.7249756	839.8889771	826.7960205	836.5980225	838.184021	833.315979	836.6049805	845.3209839	836.4379883	826.5280151	834.6500244	856.3049927	859.8270264	860.8649902	866.7329712	862.0770264
827.3599854	815.434021	827.8330078	823.9920044	820.0490112	826.7620239	822.8099976	830.0170288	827.0900269	839.8850098	839.6719971	846.2709961	839.8150024	833.3389893	849.7249756	847.0720215	833.3759766	853.0469971	838.1849976	837.2659912	839.8969727	851.190979	852.5910034	848.8099976	846.9169922	849.8369751	849.1749878	859.1459961	830.0419922	846.6550293	836.6190186	845.4249878	846.8969727	830.0419922	840.039978	836.6040039	850.5620117	848.8519897	850.8060303	853.8079834	843.4899902	853.276001	845.9810181	865.1380005	868.3759766	868.6140137	871.7810059	872.0900269	879.3809814	881.4199829	886.5499878	867.4819946	872.96698	872.723999	871.882019	873.5579834	872.0109863	854.9959717	843.1660156	841.7199707	849.7700195	839.867981	837.0750122	840.4130249	826.7620239	833.7999878	829.7769775	825.460022	820.0880127	826.7620239	823.1079712	830.0419922	833.315979	826.7600098	829.4349976	842.8109741	832.6049805	826.7639771	833.2789917	817.0819702	826.1099854	843.6220093	830.0640259	833.4240112	843.6090088	844.6190186	838.8909912	839.8850098	839.5219727	837.177002	846.3709717	829.9680176	843.4849854	836.6359863	839.3239746	841.3729858	838.7670288	856.1339722	866.6259766	873.1560059	886.5709839	891.3900146	899.1530151	890.9799805	898.9530029	905.4450073	898.6049805	891.5910034	885.0020142	840.3920288	842.960022	859.3519897	855.9349976	850.21698	842.5510254	834.3170166	839.8859863	829.6030273	832.7990112	827.34198	829.0640259	833.151001	823.4810181	830.0419922	823.4810181	817.7039795	818.0670166	820.914978	810.0750122	821.9370117	823.6010132	815.9089966	811.460022	802.2039795	802.0720215	820.7210083	822.7269897	812.6640015	822.2630005	813.2150269	813.9630127	826.4849854	802.0150146	805.8029785	810.3480225	820.5800171	817.3120117	823.0469971	814.6599731	812.3359985	814.3179932	819.1989746	827.3599854	815.434021	827.8330078	823.9920044	820.0490112	826.7620239	822.8099976	830.0170288	827.0900269	839.8850098	839.6719971	846.2709961	839.8150024	833.3389893	849.7249756	847.0720215	833.3759766	853.0469971	838.1849976	837.2659912	839.8969727	851.190979	852.5910034	848.8099976	846.9169922	849.8369751	849.1749878	859.1459961	830.0419922	846.6550293	836.6190186	845.4249878	846.8969727	830.0419922	840.039978	836.6040039	850.5620117	848.8519897	850.8060303	853.8079834	843.4899902	853.276001	845.9810181	865.1380005	868.3759766	868.6140137	871.7810059	872.0900269	879.3809814	881.4199829	886.5499878	867.4819946	872.96698	872.723999	871.882019	873.5579834	872.0109863	854.9959717	843.1660156	841.7199707	849.7700195	839.867981	837.0750122	840.4130249	826.7620239	833.7999878	829.7769775	825.460022	820.0880127	826.7620239	823.1079712	830.0419922	833.315979	826.7600098	829.4349976	842.8109741	832.6049805	826.7639771	833.2789917	817.0819702	826.1099854	843.6220093	830.0640259	833.4240112	843.6090088	844.6190186	838.8909912	839.8850098	839.5219727	837.177002	846.3709717	829.9680176	843.4849854	836.6359863	839.3239746	841.3729858	838.7670288	856.1339722	866.6259766
809.9630127	825.6400146	820.7440186	816.9639893	829.6480103	813.9769897	833.1879883	827.4000244	843.2940063	843.7719727	838.1229858	833.7360229	840.0800171	848.0499878	848.8220215	842.1160278	836.6439819	858.8309937	849.7269897	852.1970215	851.4799805	847.5209961	845.4119873	849.7189941	852.4539795	851.190979	851.1929932	845.507019	843.6810303	832.177002	836.6259766	835.9069824	846.1160278	839.6849976	841.21698	835.9190063	847.8959961	830.1989746	849.7269897	834.09198	849.7650146	853.7880249	849.7819824	853.8170166	840.5180054	835.427002	862.5900269	836.6040039	836.4110107	859.9910278	860.1859741	873.5960083	865.3070068	872.2420044	865.132019	859.1489868	857.7160034	839.8850098	846.3759766	842.9840088	833.2000122	836.6359863	826.7620239	826.401001	826.7509766	836.6199951	827.5050049	839.8889771	826.7559814	833.3109741	830.4190063	830.0579834	830.0419922	823.4810181	813.6380005	830.0419922	837.1060181	826.822998	833.322998	836.6309814	839.8729858	839.3989868	833.322998	826.7969971	838.507019	846.348999	845.5059814	842.1469727	840.0889893	834.5490112	837.9959717	843.8400269	836.6040039	836.8220215	833.322998	839.3560181	840.0629883	836.7979736	858.0120239	860.9199829	865.9199829	885.0100098	891.440979	898.9019775	890.9089966	891.4580078	892.1870117	879.5819702	873.6079712	868.3729858	836.6040039	847.065979	851.1820068	845.9619751	843.6380005	833.8079834	833.322998	833.3779907	833.3129883	823.2509766	834.4290161	847.6779785	823.5120239	823.4810181	826.9569702	825.4589844	818.3839722	820.7620239	829.5900269	811.8099976	817.802002	820.8969727	816.1669922	806.6640015	801.4429932	820.2000122	813.9420166	793.9710083	830.0319824	820.190979	796.0670166	810.1300049	817.7709961	816.9229736	834.5780029	810.3569946	830.0419922	819.0830078	823.5219727	817.7249756	810.3579712	816.6989746	809.9630127	825.6400146	820.7440186	816.9639893	829.6480103	813.9769897	833.1879883	827.4000244	843.2940063	843.7719727	838.1229858	833.7360229	840.0800171	848.0499878	848.8220215	842.1160278	836.6439819	858.8309937	849.7269897	852.1970215	851.4799805	847.5209961	845.4119873	849.7189941	852.4539795	851.190979	851.1929932	845.507019	843.6810303	832.177002	836.6259766	835.9069824	846.1160278	839.6849976	841.21698	835.9190063	847.8959961	830.1989746	849.7269897	834.09198	849.7650146	853.7880249	849.7819824	853.8170166	840.5180054	835.427002	862.5900269	836.6040039	836.4110107	859.9910278	860.1859741	873.5960083	865.3070068	872.2420044	865.132019	859.1489868	857.7160034	839.8850098	846.3759766	842.9840088	833.2000122	836.6359863	826.7620239	826.401001	826.7509766	836.6199951	827.5050049	839.8889771	826.7559814	833.3109741	830.4190063	830.0579834	830.0419922	823.4810181	813.6380005	830.0419922	837.1060181	826.822998	833.322998	836.6309814	839.8729858	839.3989868	833.322998	826.7969971	838.507019	846.348999	845.5059814	842.1469727	840.0889893	834.5490112	837.9959717	843.8400269	836.6040039	836.8220215	833.322998	839.3560181	840.0629883	836.7979736	858.0120239
822.3200073	818.3959961	816.9229736	816.9260254	816.9190063	823.3140259	824.0999756	830.4160156	839.9349976	830.0700073	829.4970093	829.9869995	840.375	838.8709717	847.3179932	840.3179932	834.0339966	839.822998	845.1630249	849.9130249	851.190979	849.7269897	851.8209839	832.9990234	848.2249756	843.5189819	839.8850098	840.6459961	837.7080078	828.6090088	830.0460205	846.5180054	848.3389893	837.1829834	843.0739746	852.2039795	859.0900269	853.2700195	853.0059814	853.5910034	859.3109741	853.7630005	847.315979	849.7890015	843.5009766	853.1710205	856.3339844	859.059021	839.5269775	859.1699829	863.7039795	859.7769775	859.0579834	856.7579956	856.5620117	855.6530151	836.6010132	855.617981	850.3920288	834.3099976	835.4320068	843.4799805	826.3549805	822.2459717	836.6040039	827.5579834	826.3049927	825.4589844	823.4810181	826.7080078	814.9060059	830.0419922	829.815979	826.6149902	808.8909912	829.8770142	830.7230225	826.7620239	826.401001	834.34198	830.0579834	831.6749878	836.460022	834.1110229	836.0910034	838.2630005	827.4550171	846.3469849	843.625	842.2800293	843.2050171	839.8850098	838.184021	837.1749878	846.7160034	834.257019	839.8850098	836.6040039	846.0869751	839.0900269	836.6040039	869.2630005	863.6480103	878.0980225	885.8410034	886.065979	878.2180176	872.375	872.7219849	872.6669922	836.0830078	859.6719971	853.8170166	845.2080078	848.8060303	843.9530029	839.940979	835.0189819	847.6140137	839.4699707	836.8649902	836.625	819.5770264	816.9260254	823.2750244	823.414978	809.5189819	816.1539917	816.8880005	816.9190063	818.3839722	823.4879761	830.8619995	814.3300171	826.3049927	815.2990112	823.71698	834.1270142	823.3560181	822.677002	823.4810181	812.7290039	806.9650269	826.7940063	815.7630005	813.0969849	830.0949707	823.4810181	826.7969971	816.9190063	816.8969727	830.9680176	822.3200073	818.3959961	816.9229736	816.9260254	816.9190063	823.3140259	824.0999756	830.4160156	839.9349976	830.0700073	829.4970093	829.9869995	840.375	838.8709717	847.3179932	840.3179932	834.0339966	839.822998	845.1630249	849.9130249	851.190979	849.7269897	851.8209839	832.9990234	848.2249756	843.5189819	839.8850098	840.6459961	837.7080078	828.6090088	830.0460205	846.5180054	848.3389893	837.1829834	843.0739746	852.2039795	859.0900269	853.2700195	853.0059814	853.5910034	859.3109741	853.7630005	847.315979	849.7890015	843.5009766	853.1710205	856.3339844	859.059021	839.5269775	859.1699829	863.7039795	859.7769775	859.0579834	856.7579956	856.5620117	855.6530151	836.6010132	855.617981	850.3920288	834.3099976	835.4320068	843.4799805	826.3549805	822.2459717	836.6040039	827.5579834	826.3049927	825.4589844	823.4810181	826.7080078	814.9060059	830.0419922	829.815979	826.6149902	808.8909912	829.8770142	830.7230225	826.7620239	826.401001	834.34198	830.0579834	831.6749878	836.460022	834.1110229	836.0910034	838.2630005	827.4550171	846.3469849	843.625	842.2800293	843.2050171	839.8850098	838.184021	837.1749878	846.7160034	834.257019	839.8850098	836.6040039	846.0869751
813.9699707	820.4329834	823.4899902	820.2230225	826.7810059	823.4810181	828.4130249	830.3969727	834.6489868	832.5529785	843.6849976	840.5109863	840.0100098	846.5629883	847.7219849	843.2540283	842.5460205	842.1049805	842.9619751	842.809021	843.1660156	842.1849976	839.8889771	846.4459839	849.7819824	823.5109863	828.5800171	835.0200195	833.0289917	833.2670288	828.1480103	839.5200195	835.007019	842.7420044	845.335022	845.2329712	843.2579956	836.6049805	849.789978	852.7689819	856.0479736	845.9110107	853.0419922	855.3460083	853.7630005	849.5809937	856.28302	850.1190186	853.8250122	843.125	836.9769897	852.9240112	843.1660156	853.4520264	836.8540039	859.0889893	838.9099731	834.822998	836.6110229	849.8540039	832.96698	843.1660156	823.3220215	826.6829834	829.9940186	827.0239868	815.5339966	810.0620117	830.2260132	816.0949707	830.0579834	830.335022	825.460022	819.7080078	826.8909912	831.0460205	833.3690186	823.4810181	830.0159912	838.0620117	833.1290283	830.0419922	833.4349976	827.90802	836.6439819	826.4240112	829.3770142	833.322998	837.1829834	843.6270142	843.1939697	842.2009888	844.8070068	843.625	835.1929932	826.8880005	829.7609863	826.7620239	855.0189819	856.0369873	836.4630127	859.367981	858.8670044	861.414978	873.1619873	871.9769897	872.4030151	864.3720093	836.6040039	829.4429932	830.0410156	834.4229736	836.2730103	841.4420166	839.9680176	832.8930054	843.2630005	830.0419922	830.1040039	832.4699707	831.8740234	843.4749756	823.414978	820.8889771	839.4329834	816.9229736	829.6220093	817.5499878	818.5230103	824.8270264	821.65802	824.440979	826.8619995	830.0579834	823.4810181	822.4260254	816.2979736	819.1049805	812.3740234	820.309021	826.7910156	817.434021	820.0880127	817.4359741	815.1370239	809.0209961	831.2529907	823.6859741	822.5189819	803.7960205	822.2319946	822.9520264	813.9699707	820.4329834	823.4899902	820.2230225	826.7810059	823.4810181	828.4130249	830.3969727	834.6489868	832.5529785	843.6849976	840.5109863	840.0100098	846.5629883	847.7219849	843.2540283	842.5460205	842.1049805	842.9619751	842.809021	843.1660156	842.1849976	839.8889771	846.4459839	849.7819824	823.5109863	828.5800171	835.0200195	833.0289917	833.2670288	828.1480103	839.5200195	835.007019	842.7420044	845.335022	845.2329712	843.2579956	836.6049805	849.789978	852.7689819	856.0479736	845.9110107	853.0419922	855.3460083	853.7630005	849.5809937	856.28302	850.1190186	853.8250122	843.125	836.9769897	852.9240112	843.1660156	853.4520264	836.8540039	859.0889893	838.9099731	834.822998	836.6110229	849.8540039	832.96698	843.1660156	823.3220215	826.6829834	829.9940186	827.0239868	815.5339966	810.0620117	830.2260132	816.0949707	830.0579834	830.335022	825.460022	819.7080078	826.8909912	831.0460205	833.3690186	823.4810181	830.0159912	838.0620117	833.1290283	830.0419922	833.4349976	827.90802	836.6439819	826.4240112	829.3770142	833.322998	837.1829834	843.6270142	843.1939697	842.2009888	844.8070068	843.625	835.1929932	826.8880005	829.7609863	826.7620239	855.0189819
826.7360229	814.1900024	819.7059937	826.7620239	826.7620239	816.9190063	828.6450195	833.322998	823.5280151	836.6760254	832.9199829	846.4450073	839.8449707	839.8850098	838.3690186	836.5910034	843.039978	839.8850098	839.8850098	826.7620239	830.0419922	826.7579956	833.59198	840.5819702	839.8959961	836.1279907	826.7639771	833.7109985	829.9890137	835.8010254	837.7080078	833.3189697	839.335022	840.3969727	851.8839722	849.7780151	849.7269897	846.9249878	839.8850098	840.4869995	852.1370239	839.0720215	842.3099976	853.7509766	845.9699707	849.8519897	839.8829956	839.8930054	839.6790161	835.8540039	853.1849976	836.9030151	843.1690063	836.8590088	837.5150146	835.0579834	836.6040039	829.6900024	839.8439941	839.5750122	826.7620239	833.315979	816.9190063	820.5040283	836.4160156	827.4290161	826.6779785	826.7620239	823.4879761	808.40802	824.3839722	823.4810181	825.3699951	829.5130005	823.0479736	823.4749756	829.3759766	836.4660034	831.1900024	836.5910034	826.8280029	829.776001	830.0419922	833.5579834	829.2150269	826.526001	832.9860229	830.2109985	846.3859863	826.3850098	833.2940063	829.9459839	826.7620239	839.4780273	830.5009766	836.2810059	836.598999	833.2919922	833.3729858	821.1030273	833.322998	845.9760132	855.7509766	858.8280029	863.4459839	856.2039795	859.3200073	865.2910156	838.9920044	853.5150146	849.6699829	851.1900024	836.6040039	830.0419922	829.3049927	832.8049927	835.2189941	826.632019	837.0859985	848.059021	846.3870239	830.1539917	832.0339966	827.0050049	833.1849976	828.4420166	824.2039795	823.5109863	816.401001	823.9050293	815.4819946	823.6300049	817.914978	823.6939697	819.5310059	827.875	806.1489868	820.4140015	808.4450073	816.9190063	793.7990112	806.8499756	820.5759888	826.7620239	823.6259766	816.6240234	823.6409912	819.5709839	820.5789795	826.684021	816.4329834	830.6370239	826.7360229	814.1900024	819.7059937	826.7620239	826.7620239	816.9190063	828.6450195	833.322998	823.5280151	836.6760254	832.9199829	846.4450073	839.8449707	839.8850098	838.3690186	836.5910034	843.039978	839.8850098	839.8850098	826.7620239	830.0419922	826.7579956	833.59198	840.5819702	839.8959961	836.1279907	826.7639771	833.7109985	829.9890137	835.8010254	837.7080078	833.3189697	839.335022	840.3969727	851.8839722	849.7780151	849.7269897	846.9249878	839.8850098	840.4869995	852.1370239	839.0720215	842.3099976	853.7509766	845.9699707	849.8519897	839.8829956	839.8930054	839.6790161	835.8540039	853.1849976	836.9030151	843.1690063	836.8590088	837.5150146	835.0579834	836.6040039	829.6900024	839.8439941	839.5750122	826.7620239	833.315979	816.9190063	820.5040283	836.4160156	827.4290161	826.6779785	826.7620239	823.4879761	808.40802	824.3839722	823.4810181	825.3699951	829.5130005	823.0479736	823.4749756	829.3759766	836.4660034	831.1900024	836.5910034	826.8280029	829.776001	830.0419922	833.5579834	829.2150269	826.526001	832.9860229	830.2109985	846.3859863	826.3850098	833.2940063	829.9459839	826.7620239	839.4780273	830.5009766	836.2810059	836.598999	833.2919922	833.3729858
819.9719849	813.0280151	813.7630005	813.3829956	827.2860107	823.1040039	829.9240112	823.4810181	829.9329834	830.9650269	843.1699829	833.322998	843.1660156	843.7299805	839.4899902	832.9650269	839.5100098	845.21698	832.7030029	826.7620239	830.6380005	830.0670166	830.0100098	839.8850098	820.0499878	826.7410278	827.0120239	830.0419922	826.7620239	819.5900269	836.6400146	831.8530273	833.677002	839.4039917	833.8540039	847.7399902	834.0800171	833.8300171	850.5650024	851.3989868	849.8649902	843.1170044	847.7919922	839.507019	847.7379761	840.697998	849.7199707	841.4680176	839.8729858	845.7219849	849.7670288	841.1820068	836.6040039	847.789978	836.6090088	840.9879761	842.1810303	826.5560303	837.9609985	842.5859985	846.4279785	826.3790283	824.5289917	827.0079956	816.9849854	823.0469971	817.0180054	823.2700195	830.0419922	823.2969971	815.3759766	826.7639771	823.3660278	816.8400269	820.5300293	823.0380249	820.4160156	826.992981	830.0419922	827.007019	829.6450195	830.315979	835.1900024	826.7559814	832.617981	826.7620239	843.7290039	840.5830078	833.322998	832.2689819	840.6469727	833.3449707	845.039978	826.9710083	834.3079834	833.322998	840.4089966	826.7639771	830.0419922	836.6040039	843.0900269	839.348999	855.4719849	851.7780151	844.7180176	844.3099976	859.7150269	847.7399902	839.8850098	836.6329956	836.6049805	839.3140259	833.1710205	833.3779907	826.7620239	827.8629761	839.4799805	830.0750122	836.6040039	847.6140137	849.7620239	843.1500244	821.6220093	831.007019	830.0419922	832.6300049	821.0159912	827.085022	822.8040161	826.7769775	823.4810181	823.4810181	822.026001	820.3079834	826.4550171	823.3270264	823.9110107	820.2000122	831.5189819	820.2000122	816.5300293	826.7739868	816.2139893	824.2680054	818.1690063	813.3400269	818.0189819	816.0150146	822.9539795	823.3560181	817.90802	820.2860107	819.9719849	813.0280151	813.7630005	813.3829956	827.2860107	823.1040039	829.9240112	823.4810181	829.9329834	830.9650269	843.1699829	833.322998	843.1660156	843.7299805	839.4899902	832.9650269	839.5100098	845.21698	832.7030029	826.7620239	830.6380005	830.0670166	830.0100098	839.8850098	820.0499878	826.7410278	827.0120239	830.0419922	826.7620239	819.5900269	836.6400146	831.8530273	833.677002	839.4039917	833.8540039	847.7399902	834.0800171	833.8300171	850.5650024	851.3989868	849.8649902	843.1170044	847.7919922	839.507019	847.7379761	840.697998	849.7199707	841.4680176	839.8729858	845.7219849	849.7670288	841.1820068	836.6040039	847.789978	836.6090088	840.9879761	842.1810303	826.5560303	837.9609985	842.5859985	846.4279785	826.3790283	824.5289917	827.0079956	816.9849854	823.0469971	817.0180054	823.2700195	830.0419922	823.2969971	815.3759766	826.7639771	823.3660278	816.8400269	820.5300293	823.0380249	820.4160156	826.992981	830.0419922	827.007019	829.6450195	830.315979	835.1900024	826.7559814	832.617981	826.7620239	843.7290039	840.5830078	833.322998	832.2689819	840.6469727	833.3449707	845.039978	826.9710083	834.3079834	833.322998	840.4089966	826.7639771	830.0419922
803.4769897	803.9370117	813.6380005	815.0349731	823.0120239	830.065979	827.7540283	825.460022	836.6040039	836.5540161	840.5800171	836.6040039	836.6220093	843.4699707	843.4890137	835.8510132	833.6409912	826.7620239	826.7620239	826.7620239	843.2509766	826.7059937	821.9450073	820.7210083	826.7739868	823.5079956	830.0869751	829.9260254	830.0419922	826.7709961	833.3389893	829.2310181	837.5079956	836.5780029	839.8150024	849.15802	849.7319946	846.3859863	843.5239868	843.5089722	841.1790161	833.8070068	836.8619995	840.1220093	833.3410034	836.09198	842.3120117	843.0900269	847.7260132	846.4459839	836.6229858	833.3690186	830.4000244	841.0250244	836.6090088	833.4039917	836.0100098	836.7709961	840.6989746	837.9810181	832.4459839	825.40802	832.9229736	826.7940063	819.7559814	826.757019	818.4589844	823.5230103	816.9240112	818.5510254	817.5239868	826.3900146	826.7620239	819.9180298	826.3989868	816.9240112	826.7620239	840.5809937	819.6729736	827.1350098	827.0430298	831.5969849	830.2780151	826.7620239	826.7319946	836.8619995	839.7979736	830.4979858	836.6040039	826.8289795	833.382019	839.8850098	846.4829712	830.0419922	835.0679932	823.3560181	844.6630249	830.710022	836.6019897	833.322998	836.6079712	837.0209961	833.3150024	843.4650269	840.1279907	840.0460205	839.8720093	836.2689819	842.5369873	826.7620239	833.322998	829.6450195	833.6500244	843.4069824	842.8049927	826.0050049	835.7459717	835.4279785	846.9180298	849.7800293	846.460022	833.322998	825.8480225	831.2520142	820.2020264	843.4790039	827.4970093	816.9390259	820.2109985	820.2589722	823.8469849	829.6989746	815.4370117	816.9190063	836.8109741	816.9190063	828.7990112	830.0029907	823.4829712	820.9060059	824.5079956	830.1799927	817.7000122	817.3670044	829.1040039	830.5449829	823.6209717	823.3569946	818.427002	813.6380005	817.5579834	826.6030273	803.4769897	803.9370117	813.6380005	815.0349731	823.0120239	830.065979	827.7540283	825.460022	836.6040039	836.5540161	840.5800171	836.6040039	836.6220093	843.4699707	843.4890137	835.8510132	833.6409912	826.7620239	826.7620239	826.7620239	843.2509766	826.7059937	821.9450073	820.7210083	826.7739868	823.5079956	830.0869751	829.9260254	830.0419922	826.7709961	833.3389893	829.2310181	837.5079956	836.5780029	839.8150024	849.15802	849.7319946	846.3859863	843.5239868	843.5089722	841.1790161	833.8070068	836.8619995	840.1220093	833.3410034	836.09198	842.3120117	843.0900269	847.7260132	846.4459839	836.6229858	833.3690186	830.4000244	841.0250244	836.6090088	833.4039917	836.0100098	836.7709961	840.6989746	837.9810181	832.4459839	825.40802	832.9229736	826.7940063	819.7559814	826.757019	818.4589844	823.5230103	816.9240112	818.5510254	817.5239868	826.3900146	826.7620239	819.9180298	826.3989868	816.9240112	826.7620239	840.5809937	819.6729736	827.1350098	827.0430298	831.5969849	830.2780151	826.7620239	826.7319946	836.8619995	839.7979736	830.4979858	836.6040039	826.8289795	833.382019	839.8850098	846.4829712	830.0419922	835.0679932	823.3560181	844.6630249	830.710022	836.6019897
827.2890015	815.1640015	807.3289795	820.1669922	831.1259766	820.7860107	825.375	830.4630127	830.6329956	828.6010132	842.7990112	830.0419922	847.7919922	839.3930054	842.7639771	846.3969727	842.5900269	826.9869995	830.0269775	826.3010254	826.3369751	825.1779785	816.0839844	825.1220093	826.7620239	820.2000122	822.460022	829.565979	823.5100098	833.6060181	830.1690063	823.4829712	830.210022	840.0709839	847.4869995	843.7910156	841.0159912	843.9030151	833.7420044	835.8579712	836.6040039	833.3049927	846.7249756	846.2470093	846.3870239	843.0910034	833.697998	843.1660156	826.7620239	835.0040283	832.9840088	833.7139893	842.4349976	839.8480225	829.5430298	843.7280273	843.6110229	834.8510132	840.0109863	823.3250122	840.177002	826.9000244	833.8619995	826.6030273	816.9180298	823.5009766	816.9229736	816.9190063	806.6749878	816.940979	829.6279907	828.1790161	820.8200073	820.2000122	816.1859741	823.3070068	816.3540039	816.625	827.0390015	819.5969849	817.3150024	826.7680054	820.1350098	826.7620239	814.1459961	823.3959961	827.5189819	833.1450195	833.3699951	823.6010132	826.6190186	836.6450195	836.1259766	826.302002	836.6119995	835.085022	826.8189697	823.2269897	818.5120239	830.0670166	832.1829834	830.0319824	833.1859741	845.1890259	832.2600098	836.4530029	843.6370239	832.8579712	836.6040039	827.8939819	824.5689697	833.6879883	833.322998	839.75	834.4429932	833.3950195	833.3770142	830.0419922	847.7680054	847.6799927	836.6040039	833.822998	844.0980225	840.3259888	824.848999	840.4019775	836.25	826.7069702	827.3530273	822.723999	829.8380127	823.5230103	821.6929932	820.2139893	830.5419922	826.3339844	820.3930054	826.9299927	823.5089722	819.867981	820.5050049	824.7620239	818.8410034	818.0700073	813.46698	820.4140015	812.8649902	816.9240112	816.9229736	820.2000122	821.9110107	811.3969727	827.2890015	815.1640015	807.3289795	820.1669922	831.1259766	820.7860107	825.375	830.4630127	830.6329956	828.6010132	842.7990112	830.0419922	847.7919922	839.3930054	842.7639771	846.3969727	842.5900269	826.9869995	830.0269775	826.3010254	826.3369751	825.1779785	816.0839844	825.1220093	826.7620239	820.2000122	822.460022	829.565979	823.5100098	833.6060181	830.1690063	823.4829712	830.210022	840.0709839	847.4869995	843.7910156	841.0159912	843.9030151	833.7420044	835.8579712	836.6040039	833.3049927	846.7249756	846.2470093	846.3870239	843.0910034	833.697998	843.1660156	826.7620239	835.0040283	832.9840088	833.7139893	842.4349976	839.8480225	829.5430298	843.7280273	843.6110229	834.8510132	840.0109863	823.3250122	840.177002	826.9000244	833.8619995	826.6030273	816.9180298	823.5009766	816.9229736	816.9190063	806.6749878	816.940979	829.6279907	828.1790161	820.8200073	820.2000122	816.1859741	823.3070068	816.3540039	816.625	827.0390015	819.5969849	817.3150024	826.7680054	820.1350098	826.7620239	814.1459961	823.3959961	827.5189819	833.1450195	833.3699951	823.6010132	826.6190186	836.6450195	836.1259766	826.302002	836.6119995	835.085022	826.8189697	823.2269897	818.5120239
822.5499878	826.7059937	818.4140015	830.0440063	816.9229736	823.9169922	830.4329834	829.2280273	830.3430176	839.8389893	829.6439819	830.4860229	826.7620239	838.3790283	843.3519897	840.2109985	837.7800293	833.3809814	817.3129883	833.0750122	827.1939697	816.6420288	824.1240234	830.0449829	826.2399902	823.0479736	820.0720215	827.8640137	830.3319702	833.1290283	832.8150024	826.7709961	839.8850098	846.4459839	833.322998	845.5339966	840.039978	846.4459839	843.2849731	826.6779785	826.7589722	832.0859985	843.5310059	829.1610107	827.1849976	836.6719971	843.1699829	835.7180176	839.8850098	833.3720093	830.4639893	833.3129883	834.7449951	843.1660156	830.539978	836.7260132	830.0859985	833.6270142	832.6209717	822.7999878	817.1719971	833.3449707	838.164978	826.7709961	826.3189697	825.0490112	821.9169922	815.4329834	812.9539795	820.4790039	819.4550171	823.5029907	810.3579712	800.0130005	825.8880005	829.1040039	814.9689941	819.5709839	819.1749878	815.9940186	816.2210083	830.1640015	826.7620239	826.7620239	818.5159912	837.1010132	828.598999	826.7689819	829.697998	826.8170166	820.2739868	819.9760132	829.9959717	830.0419922	820.8560181	826.7620239	830.5709839	826.7709961	823.3770142	826.7620239	833.2559814	830.0579834	828.7089844	846.4450073	833.867981	830.039978	840.3969727	830.1669922	829.8220215	837.1519775	833.8759766	830.2109985	834.5239868	827.2819824	830.0419922	828.5980225	846.4459839	826.7670288	834.625	842.2119751	843.2869873	836.5839844	842.5250244	842.5670166	830.4489746	826.8140259	830.0239868	836.6439819	820.7880249	826.9879761	833.382019	820.9240112	820.7189941	830.6129761	823.5100098	823.3309937	820.7990112	827.5369873	822.9279785	823.4810181	820.2000122	814.1170044	816.559021	818.0910034	820.3010254	813.5469971	816.9190063	813.0609741	823.0300293	820.5800171	821.3530273	826.0059814	822.5499878	826.7059937	818.4140015	830.0440063	816.9229736	823.9169922	830.4329834	829.2280273	830.3430176	839.8389893	829.6439819	830.4860229	826.7620239	838.3790283	843.3519897	840.2109985	837.7800293	833.3809814	817.3129883	833.0750122	827.1939697	816.6420288	824.1240234	830.0449829	826.2399902	823.0479736	820.0720215	827.8640137	830.3319702	833.1290283	832.8150024	826.7709961	839.8850098	846.4459839	833.322998	845.5339966	840.039978	846.4459839	843.2849731	826.6779785	826.7589722	832.0859985	843.5310059	829.1610107	827.1849976	836.6719971	843.1699829	835.7180176	839.8850098	833.3720093	830.4639893	833.3129883	834.7449951	843.1660156	830.539978	836.7260132	830.0859985	833.6270142	832.6209717	822.7999878	817.1719971	833.3449707	838.164978	826.7709961	826.3189697	825.0490112	821.9169922	815.4329834	812.9539795	820.4790039	819.4550171	823.5029907	810.3579712	800.0130005	825.8880005	829.1040039	814.9689941	819.5709839	819.1749878	815.9940186	816.2210083	830.1640015	826.7620239	826.7620239	818.5159912	837.1010132	828.598999	826.7689819	829.697998	826.8170166	820.2739868	819.9760132	829.9959717	830.0419922	820.8560181	826.7620239	830.5709839	826.7709961	823.3770142
823.9310303	820.2000122	815.0479736	823.4810181	826.4349976	822.9630127	823.4810181	830.0419922	823.6870117	829.3770142	835.6710205	827.8920288	830.2750244	835.9509888	821.9959717	830.0419922	826.5319824	830.0319824	820.4160156	829.2039795	820.2000122	818.4589844	823.7609863	816.4979858	817.5759888	815.4730225	826.3099976	820.6329956	819.4910278	827.822998	832.6030273	835.6160278	833.322998	826.7689819	835.7410278	846.4329834	833.6229858	846.4190063	840.1370239	827.4550171	826.5720215	828.4349976	843.132019	826.7620239	823.5109863	826.7919922	832.3179932	837.1459961	836.5809937	843.177002	839.7979736	840.7680054	839.8850098	830.0419922	846.3930054	826.7020264	826.7620239	826.7369995	830.0419922	825.572998	830.5209961	838.5269775	830.0939941	832.6079712	832.2440186	836.6060181	823.4920044	816.3720093	819.4559937	810.0469971	823.4320068	816.9190063	816.9400024	823.4810181	815.4240112	829.6530151	818.4829712	815.4660034	817.5460205	814.1229858	824.2700195	826.7620239	833.8170166	816.8610229	830.0889893	824.1290283	826.7709961	829.6599731	824.8270264	830.0419922	826.7709961	830.4500122	826.7620239	816.4609985	826.7459717	823.5009766	828.6530151	819.7949829	829.7600098	829.9970093	826.552002	823.3610229	826.7620239	825.7689819	836.2009888	829.7789917	825.5050049	820.197998	823.4810181	833.322998	826.7620239	825.0640259	824.7949829	820.2009888	836.6229858	829.5230103	832.5960083	836.6090088	833.3660278	830.1199951	840.1190186	830.3809814	845.6989746	844.6409912	829.5930176	830.3330078	836.117981	829.3759766	822.460022	830.0570068	824.8729858	810.3289795	805.9819946	823.9680176	816.8779907	823.9140015	820.2000122	816.9190063	824.2689819	823.4810181	826.1079712	820.2319946	826.7670288	820.5079956	828.1259766	813.6380005	816.9190063	816.9199829	830.3289795	814.9489746	819.3109741	809.1359863	823.9310303	820.2000122	815.0479736	823.4810181	826.4349976	822.9630127	823.4810181	830.0419922	823.6870117	829.3770142	835.6710205	827.8920288	830.2750244	835.9509888	821.9959717	830.0419922	826.5319824	830.0319824	820.4160156	829.2039795	820.2000122	818.4589844	823.7609863	816.4979858	817.5759888	815.4730225	826.3099976	820.6329956	819.4910278	827.822998	832.6030273	835.6160278	833.322998	826.7689819	835.7410278	846.4329834	833.6229858	846.4190063	840.1370239	827.4550171	826.5720215	828.4349976	843.132019	826.7620239	823.5109863	826.7919922	832.3179932	837.1459961	836.5809937	843.177002	839.7979736	840.7680054	839.8850098	830.0419922	846.3930054	826.7020264	826.7620239	826.7369995	830.0419922	825.572998	830.5209961	838.5269775	830.0939941	832.6079712	832.2440186	836.6060181	823.4920044	816.3720093	819.4559937	810.0469971	823.4320068	816.9190063	816.9400024	823.4810181	815.4240112	829.6530151	818.4829712	815.4660034	817.5460205	814.1229858	824.2700195	826.7620239	833.8170166	816.8610229	830.0889893	824.1290283	826.7709961	829.6599731	824.8270264	830.0419922	826.7709961	830.4500122	826.7620239	816.4609985	826.7459717	823.5009766	828.6530151	819.7949829	829.7600098
820.1309814	814.9749756	823.9509888	819.7490234	820.2050171	820.2719727	831.2230225	837.1760254	827.039978	838.3759766	823.2269897	826.7620239	829.9240112	819.5819702	826.3809814	833.1010132	826.7730103	830.0419922	816.2990112	829.2789917	822.4119873	823.4580078	830.8330078	823.5289917	826.7650146	823.3850098	827.8859863	824.3779907	826.7620239	833.3220215	840.4000244	839.8850098	835.1430054	829.9580078	837.0560303	845.0910034	842.7410278	837.1660156	832.7839966	830.0419922	833.1959839	830.7540283	829.1740112	816.9390259	830.0419922	826.7050171	833.322998	833.3790283	830.0419922	833.151001	833.322998	830.0419922	836.6040039	834.3369751	843.2050171	836.5789795	830.0419922	826.7620239	836.3579712	830.0419922	823.1669922	830.6309814	830.0419922	826.7620239	829.9899902	822.7930298	823.65802	820.4559937	814.8969727	826.7620239	830.1030273	830.0419922	826.9030151	826.757019	823.4810181	814.9160156	823.065979	816.0250244	820.2000122	819.2360229	816.7659912	816.9199829	816.8690186	832.7069702	823.3540039	821.0949707	818.3099976	833.3239746	826.5430298	813.0120239	820.2130127	826.7620239	823.3430176	824.0230103	810.4539795	829.2849731	826.7650146	823.2109985	827.3519897	824.3629761	824.8690186	820.8859863	830.1229858	827.0510254	830.0159912	830.0419922	826.7620239	819.9790039	819.3460083	817.4849854	820.2000122	829.8330078	833.3720093	820.9799805	832.5109863	819.2109985	830.7160034	829.7719727	826.4130249	837.1849976	840.9509888	836.1879883	851.7620239	848.8099976	836.6760254	832.9160156	841.0139771	833.3619995	838.2630005	830.0419922	833.4050293	826.7630005	825.4819946	826.7659912	820.5939941	820.7269897	826.7620239	819.5560303	820.2009888	827.1989746	826.4240112	826.7620239	817.6530151	816.2180176	826.322998	819.5159912	822.242981	824.6329956	816.9190063	820.5800171	820.2709961	823.0960083	820.1309814	814.9749756	823.9509888	819.7490234	820.2050171	820.2719727	831.2230225	837.1760254	827.039978	838.3759766	823.2269897	826.7620239	829.9240112	819.5819702	826.3809814	833.1010132	826.7730103	830.0419922	816.2990112	829.2789917	822.4119873	823.4580078	830.8330078	823.5289917	826.7650146	823.3850098	827.8859863	824.3779907	826.7620239	833.3220215	840.4000244	839.8850098	835.1430054	829.9580078	837.0560303	845.0910034	842.7410278	837.1660156	832.7839966	830.0419922	833.1959839	830.7540283	829.1740112	816.9390259	830.0419922	826.7050171	833.322998	833.3790283	830.0419922	833.151001	833.322998	830.0419922	836.6040039	834.3369751	843.2050171	836.5789795	830.0419922	826.7620239	836.3579712	830.0419922	823.1669922	830.6309814	830.0419922	826.7620239	829.9899902	822.7930298	823.65802	820.4559937	814.8969727	826.7620239	830.1030273	830.0419922	826.9030151	826.757019	823.4810181	814.9160156	823.065979	816.0250244	820.2000122	819.2360229	816.7659912	816.9199829	816.8690186	832.7069702	823.3540039	821.0949707	818.3099976	833.3239746	826.5430298	813.0120239	820.2130127	826.7620239	823.3430176	824.0230103	810.4539795	829.2849731	826.7650146	823.2109985	827.3519897
826.7020264	819.5969849	809.3140259	821.0349731	823.5079956	826.2399902	826.6229858	816.2780151	832.9849854	843.4899902	827.348999	820.8859863	839.8850098	822.5230103	826.2559814	829.8289795	829.9899902	823.6560059	813.6380005	819.4249878	820.2000122	817.0819702	819.9790039	816.6149902	820.2000122	827.0390015	836.6450195	826.7620239	827.1290283	828.3850098	836.2730103	840.9650269	837.0889893	835.0759888	833.2579956	842.1970215	836.6359863	839.901001	829.2329712	826.1389771	826.7730103	823.4810181	833.322998	819.9730225	830.4099731	830.0419922	820.2009888	833.8720093	836.6040039	832.6019897	838.4099731	830.0869751	833.3400269	835.1939697	833.9660034	816.9190063	831.6859741	823.0960083	839.3980103	830.0609741	836.6079712	829.8400269	826.4000244	815.5059814	827.2930298	828.75	826.7559814	823.1760254	826.7969971	827.4000244	820.9160156	820.882019	824.5620117	816.4030151	813.9290161	823.0620117	826.8179932	816.6439819	824.677002	826.7739868	816.9190063	817.5689697	817.1680298	813.5300293	830.0419922	830.2230225	826.7620239	830.0170288	823.5980225	814.9169922	820.21698	820.1500244	816.9240112	816.4639893	813.0629883	809.0549927	827.8250122	820.2069702	826.9349976	823.348999	813.0139771	826.7620239	817.5280151	829.9899902	829.5139771	802.1420288	820.2000122	816.9400024	820.4689941	816.7620239	813.0640259	813.1010132	827.132019	830.6489868	820.2420044	817.7030029	820.2160034	822.9140015	823.322998	836.0490112	833.7620239	830.0419922	843.6430054	831.9119873	846.4459839	835.8239746	840.1270142	836.8660278	834.8200073	833.5549927	823.5280151	826.7620239	823.0280151	820.2109985	813.8920288	822.026001	820.8989868	827.901001	830.0449829	816.1660156	822.9459839	817.5310059	817.3920288	828.4019775	823.4190063	823.6489868	823.6810303	816.9229736	823.65802	817.539978	817.1970215	814.9500122	826.7020264	819.5969849	809.3140259	821.0349731	823.5079956	826.2399902	826.6229858	816.2780151	832.9849854	843.4899902	827.348999	820.8859863	839.8850098	822.5230103	826.2559814	829.8289795	829.9899902	823.6560059	813.6380005	819.4249878	820.2000122	817.0819702	819.9790039	816.6149902	820.2000122	827.0390015	836.6450195	826.7620239	827.1290283	828.3850098	836.2730103	840.9650269	837.0889893	835.0759888	833.2579956	842.1970215	836.6359863	839.901001	829.2329712	826.1389771	826.7730103	823.4810181	833.322998	819.9730225	830.4099731	830.0419922	820.2009888	833.8720093	836.6040039	832.6019897	838.4099731	830.0869751	833.3400269	835.1939697	833.9660034	816.9190063	831.6859741	823.0960083	839.3980103	830.0609741	836.6079712	829.8400269	826.4000244	815.5059814	827.2930298	828.75	826.7559814	823.1760254	826.7969971	827.4000244	820.9160156	820.882019	824.5620117	816.4030151	813.9290161	823.0620117	826.8179932	816.6439819	824.677002	826.7739868	816.9190063	817.5689697	817.1680298	813.5300293	830.0419922	830.2230225	826.7620239	830.0170288	823.5980225	814.9169922	820.21698	820.1500244	816.9240112	816.4639893	813.0629883	809.0549927	827.8250122	820.2069702	826.9349976
826.7689819	820.2000122	820.7399902	823.572998	816.9509888	820.8590088	826.8640137	817.5180054	826.3839722	826.4390259	833.3519897	830.0419922	825.2960205	826.7639771	823.3040161	817.559021	825.276001	830.0490112	820.1099854	802.1069946	816.9240112	823.598999	821.0360107	816.9229736	806.7319946	823.5999756	832.8120117	820.3510132	828.117981	830.492981	843.3179932	833.1339722	838.1900024	829.9279785	830.0750122	826.2650146	837.1879883	838.335022	836.6040039	835.2789917	824.5449829	826.7659912	822.4699707	823.1879883	829.7249756	821.6950073	830.0419922	826.7620239	831.2520142	820.882019	825.8250122	825.9910278	839.6569824	830.348999	830.2009888	833.4089966	821.0449829	846.4459839	840.6439819	823.4810181	826.7620239	836.6040039	828.1480103	832.9840088	829.0269775	825.9089966	816.9190063	820.3079834	823.1970215	830.0419922	823.6270142	816.9240112	830.7979736	818.0629883	813.6430054	816.4630127	816.9390259	812.7260132	817.2119751	813.6380005	821.0700073	823.2030029	823.5839844	826.7700195	823.4810181	817.117981	812.6380005	830.6569824	815.348999	813.276001	801.7670288	810.7440186	814.3109741	821.322998	808.9160156	815.7780151	823.0120239	827.7030029	820.2410278	814.2399902	820.7349854	831.2639771	823.697998	822.4060059	826.7620239	813.6380005	830.0419922	816.2769775	819.927002	813.6380005	818.4959717	813.6229858	821.7540283	819.0120239	818.4219971	826.3339844	830.0419922	820.4760132	830.0419922	830.7189941	837.0839844	826.7620239	839.3950195	843.1660156	841.0139771	833.8060303	823.7940063	830.2000122	822.6929932	827.447998	823.322998	828.3029785	833.4019775	809.9769897	826.7620239	820.2509766	837.1690063	816.6690063	823.4810181	823.4810181	823.1859741	815.4439697	816.96698	826.7750244	821.848999	826.7340088	833.809021	826.7620239	819.8930054	823.6900024	827.0490112	820.7210083	826.7689819	820.2000122	820.7399902	823.572998	816.9509888	820.8590088	826.8640137	817.5180054	826.3839722	826.4390259	833.3519897	830.0419922	825.2960205	826.7639771	823.3040161	817.559021	825.276001	830.0490112	820.1099854	802.1069946	816.9240112	823.598999	821.0360107	816.9229736	806.7319946	823.5999756	832.8120117	820.3510132	828.117981	830.492981	843.3179932	833.1339722	838.1900024	829.9279785	830.0750122	826.2650146	837.1879883	838.335022	836.6040039	835.2789917	824.5449829	826.7659912	822.4699707	823.1879883	829.7249756	821.6950073	830.0419922	826.7620239	831.2520142	820.882019	825.8250122	825.9910278	839.6569824	830.348999	830.2009888	833.4089966	821.0449829	846.4459839	840.6439819	823.4810181	826.7620239	836.6040039	828.1480103	832.9840088	829.0269775	825.9089966	816.9190063	820.3079834	823.1970215	830.0419922	823.6270142	816.9240112	830.7979736	818.0629883	813.6430054	816.4630127	816.9390259	812.7260132	817.2119751	813.6380005	821.0700073	823.2030029	823.5839844	826.7700195	823.4810181	817.117981	812.6380005	830.6569824	815.348999	813.276001	801.7670288	810.7440186	814.3109741	821.322998	808.9160156	815.7780151	823.0120239	827.7030029	820.2410278
826.7349854	819.7420044	830.0419922	821.8209839	827.6970215	823.2509766	833.3859863	826.7700195	819.9819946	823.7410278	817.5189819	820.132019	819.5739746	837.0419922	820.0869751	823.4810181	825.5440063	811.5150146	819.1279907	819.9849854	824.6699829	823.5020142	823.414978	807.2260132	806.6820068	813.6140137	817.6950073	819.2319946	833.7470093	826.4990234	826.4650269	839.8900146	839.9019775	831.8010254	826.6350098	833.3809814	827.7290039	829.934021	823.0219727	824.539978	829.9630127	813.8930054	816.8280029	826.7199707	834.4580078	826.7620239	825.8189697	820.0819702	823.6259766	823.3610229	826.7319946	824.5269775	833.1489868	826.6599731	826.6749878	823.1329956	839.8720093	843.2620239	842.7559814	830.0419922	836.6099854	840.3770142	832.6610107	823.1890259	833.2990112	828.6530151	833.322998	825.2780151	817.4400024	826.5089722	816.7410278	820.5700073	825.1619873	817.7050171	829.9439697	830.1989746	826.7620239	822.7340088	830.0380249	821.6959839	813.6290283	823.4810181	819.0830078	805.7739868	818.0339966	813.9539795	819.4589844	820.6300049	807.3510132	809.2969971	797.2160034	810.3579712	816.9229736	801.3950195	807.5050049	816.3900146	826.815979	820.7719727	810.4400024	820.2139893	820.9680176	818.7529907	821.0300293	813.184021	816.9219971	809.1270142	807.0059814	808.9130249	820.2009888	805.9780273	803.5770264	801.1970215	819.8179932	820.2000122	827.0120239	816.5670166	823.5120239	823.4119873	825.5109863	829.9940186	830.0419922	821.3250122	835.8010254	843.4229736	823.2269897	835.6019897	826.3359985	830.0239868	829.7869873	830.0419922	819.4970093	823.1950073	817.585022	810.0570068	815.1900024	806.9110107	826.6140137	820.9420166	808.7059937	826.7620239	815.3909912	813.5390015	816.9210205	820.2000122	822.4580078	816.3740234	817.2379761	826.5449829	826.8179932	816.9190063	817.5770264	826.6199951	826.7349854	819.7420044	830.0419922	821.8209839	827.6970215	823.2509766	833.3859863	826.7700195	819.9819946	823.7410278	817.5189819	820.132019	819.5739746	837.0419922	820.0869751	823.4810181	825.5440063	811.5150146	819.1279907	819.9849854	824.6699829	823.5020142	823.414978	807.2260132	806.6820068	813.6140137	817.6950073	819.2319946	833.7470093	826.4990234	826.4650269	839.8900146	839.9019775	831.8010254	826.6350098	833.3809814	827.7290039	829.934021	823.0219727	824.539978	829.9630127	813.8930054	816.8280029	826.7199707	834.4580078	826.7620239	825.8189697	820.0819702	823.6259766	823.3610229	826.7319946	824.5269775	833.1489868	826.6599731	826.6749878	823.1329956	839.8720093	843.2620239	842.7559814	830.0419922	836.6099854	840.3770142	832.6610107	823.1890259	833.2990112	828.6530151	833.322998	825.2780151	817.4400024	826.5089722	816.7410278	820.5700073	825.1619873	817.7050171	829.9439697	830.1989746	826.7620239	822.7340088	830.0380249	821.6959839	813.6290283	823.4810181	819.0830078	805.7739868	818.0339966	813.9539795	819.4589844	820.6300049	807.3510132	809.2969971	797.2160034	810.3579712	816.9229736	801.3950195	807.5050049	816.3900146	826.815979	820.7719727	810.4400024
820.2390137	819.4799805	827.125	830.4089966	826.7969971	826.7620239	826.2399902	837.0529785	815.9860229	833.322998	836.6229858	830.0410156	823.598999	830.65802	832.6560059	825.414978	823.4899902	811.5269775	830.039978	823.5029907	820.2490234	812.8449707	820.9000244	816.9190063	816.9199829	820.2000122	818.2639771	824.6259766	830.0419922	826.901001	837.0869751	829.973999	832.2550049	830.0419922	823.4810181	830.4459839	820.414978	829.9899902	830.7630005	820.4509888	813.6380005	819.7979736	819.4819946	826.7550049	823.6370239	820.28302	817.7449951	818.4819946	821.7210083	827.085022	832.4790039	827.5780029	823.4810181	836.6259766	829.9780273	836.8449707	843.1400146	840.3709717	843.5130005	827.8850098	840.2150269	834.0310059	836.6790161	840.0709839	824.4290161	823.5170288	824.3389893	822.2559814	816.9390259	819.5789795	826.4949951	820.5800171	826.7620239	826.7609863	826.7620239	824.8270264	830.7089844	830.0419922	820.2000122	830.0949707	817.2329712	813.4760132	823.5120239	814.6560059	803.8369751	806.1879883	813.5460205	814.1199951	816.3920288	793.6820068	811.9310303	803.4959717	796.8430176	793.914978	792.940979	807.9589844	816.5230103	816.7609863	808.7529907	812.9550171	808.2390137	823.4990234	815.5020142	801.9530029	810.4420166	813.8740234	810.3579712	799.6119995	803.2180176	806.59198	797.177002	811.401001	812.6669922	819.1760254	820.4619751	807.0770264	805.6599731	823.4650269	813.8909912	813.6380005	816.8699951	816.2670288	840.0490112	826.7199707	826.3829956	822.0640259	827.0390015	836.6259766	819.7280273	823.9920044	826.7620239	823.4990234	812.9569702	813.9210205	813.5809937	817.1040039	816.8640137	824.5499878	822.2639771	816.9869995	813.6140137	818.3880005	830.0869751	822.9730225	820.2219849	819.9190063	826.302002	822.9420166	816.9379883	820.2000122	810.4260254	814.9349976	820.2390137	819.4799805	827.125	830.4089966	826.7969971	826.7620239	826.2399902	837.0529785	815.9860229	833.322998	836.6229858	830.0410156	823.598999	830.65802	832.6560059	825.414978	823.4899902	811.5269775	830.039978	823.5029907	820.2490234	812.8449707	820.9000244	816.9190063	816.9199829	820.2000122	818.2639771	824.6259766	830.0419922	826.901001	837.0869751	829.973999	832.2550049	830.0419922	823.4810181	830.4459839	820.414978	829.9899902	830.7630005	820.4509888	813.6380005	819.7979736	819.4819946	826.7550049	823.6370239	820.28302	817.7449951	818.4819946	821.7210083	827.085022	832.4790039	827.5780029	823.4810181	836.6259766	829.9780273	836.8449707	843.1400146	840.3709717	843.5130005	827.8850098	840.2150269	834.0310059	836.6790161	840.0709839	824.4290161	823.5170288	824.3389893	822.2559814	816.9390259	819.5789795	826.4949951	820.5800171	826.7620239	826.7609863	826.7620239	824.8270264	830.7089844	830.0419922	820.2000122	830.0949707	817.2329712	813.4760132	823.5120239	814.6560059	803.8369751	806.1879883	813.5460205	814.1199951	816.3920288	793.6820068	811.9310303	803.4959717	796.8430176	793.914978	792.940979	807.9589844	816.5230103	816.7609863	808.7529907
831.1259766	826.5009766	825.1259766	820.210022	823.7030029	828.125	835.0360107	817.5130005	816.9229736	826.7600098	813.9349976	818.4799805	813.8629761	821.8449707	820.2059937	823.5980225	826.4940186	823.2109985	830.0529785	820.1209717	813.6640015	812.6619873	819.4509888	819.9569702	817.4249878	816.8720093	832.0720215	831.1170044	830.098999	815.4160156	822.8779907	830.0419922	826.2529907	830.3300171	826.7109985	830.0670166	819.5560303	833.3699951	826.7620239	814.2509766	819.1409912	823.9099731	820.2109985	813.5	816.9140015	813.6380005	809.7609863	820.6079712	820.2009888	826.9030151	826.2540283	833.322998	830.2839966	840.0620117	840.2540283	840.6469727	840.7310181	837.9730225	839.8850098	847.7280273	839.8839722	840.8619995	836.5620117	840.0479736	826.5100098	816.0629883	830.4869995	827.3900146	830.0419922	833.4199829	833.322998	820.2000122	823.3079834	828.1099854	823.8300171	824.1749878	826.7479858	816.9190063	823.4869995	819.9249878	827.1959839	823.0280151	816.2670288	826.7509766	816.9199829	817.1989746	813.0029907	809.125	813.0130005	806.7089844	811.9169922	805.1140137	813.9470215	799.5529785	802.2059937	806.5430298	806.9689941	805.6409912	813.5859985	811.4199829	822.71698	805.3779907	816.9219971	815.5130005	808.8759766	797.2219849	807.0770264	801.7529907	806.8649902	807.5889893	813.6760254	810.71698	817.8289795	801.8759766	813.664978	809.9719849	801.6439819	809.9749756	816.8950195	808.1209717	817.3469849	806.1959839	824.5239868	823.5059814	830.9790039	828.2680054	823.1959839	830.0499878	823.4810181	816.9509888	824.6110229	807.565979	820.0390015	806.6170044	812.2730103	803.7119751	803.7960205	808.2310181	814.3179932	820.2000122	826.7620239	826.9539795	826.6970215	826.7620239	823.664978	820.2000122	826.6270142	830.0960083	830.0419922	826.7919922	826.7620239	817.2979736	831.1259766	826.5009766	825.1259766	820.210022	823.7030029	828.125	835.0360107	817.5130005	816.9229736	826.7600098	813.9349976	818.4799805	813.8629761	821.8449707	820.2059937	823.5980225	826.4940186	823.2109985	830.0529785	820.1209717	813.6640015	812.6619873	819.4509888	819.9569702	817.4249878	816.8720093	832.0720215	831.1170044	830.098999	815.4160156	822.8779907	830.0419922	826.2529907	830.3300171	826.7109985	830.0670166	819.5560303	833.3699951	826.7620239	814.2509766	819.1409912	823.9099731	820.2109985	813.5	816.9140015	813.6380005	809.7609863	820.6079712	820.2009888	826.9030151	826.2540283	833.322998	830.2839966	840.0620117	840.2540283	840.6469727	840.7310181	837.9730225	839.8850098	847.7280273	839.8839722	840.8619995	836.5620117	840.0479736	826.5100098	816.0629883	830.4869995	827.3900146	830.0419922	833.4199829	833.322998	820.2000122	823.3079834	828.1099854	823.8300171	824.1749878	826.7479858	816.9190063	823.4869995	819.9249878	827.1959839	823.0280151	816.2670288	826.7509766	816.9199829	817.1989746	813.0029907	809.125	813.0130005	806.7089844	811.9169922	805.1140137	813.9470215	799.5529785	802.2059937	806.5430298	806.9689941	805.6409912	813.5859985
826.7620239	819.0839844	826.7620239	826.8880005	826.5109863	815.9039917	827.0089722	816.9219971	819.5269775	826.7659912	814.1970215	823.1469727	822.2639771	820.5800171	815.6040039	827.3519897	813.6380005	816.9190063	816.6110229	823.2849731	819.9539795	818.565979	813.6380005	823.4810181	823.026001	816.9229736	824.2039795	822.947998	822.0440063	830.0419922	826.4240112	832.6069946	822.7329712	823.5159912	827.2490234	826.8289795	823.4810181	820.210022	806.1859741	812.5310059	806.7979736	806.7399902	820.3469849	822.2620239	813.7609863	808.6630249	816.664978	814.1149902	820.1779785	819.4249878	823.598999	826.6849976	830.0419922	839.8850098	836.6119995	837.4320068	832.927002	839.8850098	840.6359863	836.6079712	843.2919922	843.2589722	834.0419922	841.3430176	836.6040039	830.9719849	837.0209961	830.3280029	828.9689941	820.4099731	816.6710205	826.7620239	830.0419922	830.6480103	831.2589722	833.322998	830.026001	821.4539795	816.6680298	823.4810181	830.0419922	825.1560059	833.5540161	819.6929932	821.7520142	816.9229736	807.223999	808.7769775	799.8649902	799.9320068	810.4420166	803.6359863	805.8569946	797.085022	803.4719849	793.4470215	799.6569824	796.9420166	799.6170044	810.5789795	810.1190186	816.0900269	805.1069946	805.6599731	793.9520264	823.5310059	810.1329956	803.7960205	806.9580078	806.7139893	810.9840088	792.973999	807.34198	809.5029907	800.1890259	803.5490112	793.789978	819.7890015	809.9240112	813.065979	811.3809814	799.6140137	819.9299927	830.0620117	829.2639771	827.1879883	824.5230103	823.7139893	830.9359741	819.6599731	811.6610107	810.4359741	803.914978	805.7709961	803.6879883	816.9190063	812.5319824	817.4030151	823.4810181	836.6099854	822.5380249	827.6010132	834.3120117	820.2000122	833.3449707	827.0430298	823.2069702	816.6530151	823.4810181	826.7620239	826.3959961	826.401001	826.7620239	819.0839844	826.7620239	826.8880005	826.5109863	815.9039917	827.0089722	816.9219971	819.5269775	826.7659912	814.1970215	823.1469727	822.2639771	820.5800171	815.6040039	827.3519897	813.6380005	816.9190063	816.6110229	823.2849731	819.9539795	818.565979	813.6380005	823.4810181	823.026001	816.9229736	824.2039795	822.947998	822.0440063	830.0419922	826.4240112	832.6069946	822.7329712	823.5159912	827.2490234	826.8289795	823.4810181	820.210022	806.1859741	812.5310059	806.7979736	806.7399902	820.3469849	822.2620239	813.7609863	808.6630249	816.664978	814.1149902	820.1779785	819.4249878	823.598999	826.6849976	830.0419922	839.8850098	836.6119995	837.4320068	832.927002	839.8850098	840.6359863	836.6079712	843.2919922	843.2589722	834.0419922	841.3430176	836.6040039	830.9719849	837.0209961	830.3280029	828.9689941	820.4099731	816.6710205	826.7620239	830.0419922	830.6480103	831.2589722	833.322998	830.026001	821.4539795	816.6680298	823.4810181	830.0419922	825.1560059	833.5540161	819.6929932	821.7520142	816.9229736	807.223999	808.7769775	799.8649902	799.9320068	810.4420166	803.6359863	805.8569946	797.085022	803.4719849	793.4470215	799.6569824	796.9420166	799.6170044
830.0189819	819.7470093	826.7719727	823.526001	830.9219971	825.4190063	828.848999	830.0419922	826.3060303	827.3549805	820.4060059	823.9160156	823.2050171	816.9190063	803.4769897	813.6380005	807.0349731	809.8619995	808.1640015	812.9550171	823.3220215	820.2009888	820.1469727	817.1099854	818.7479858	819.9249878	823.5050049	823.3950195	830.0419922	833.3049927	830.0029907	825.8319702	823.4970093	823.901001	826.3510132	819.5089722	824.4990234	826.7620239	807.1079712	805.6630249	803.6129761	799.6069946	808.5999756	808.3790283	820.2219849	797.8640137	807.5949707	819.6699829	816.302002	814.914978	818.473999	831.2600098	826.9310303	816.9229736	825.8549805	844.4169922	836.5670166	837.1630249	839.9219971	843.7540283	846.4459839	846.1110229	836.3560181	836.6040039	836.2540283	826.0629883	840.0109863	830.0419922	826.6259766	825.526001	826.651001	826.7620239	827.9000244	818.2750244	823.4810181	820.2119751	826.7620239	823.4229736	816.9190063	824.6279907	827.2449951	829.6430054	830.0419922	827.6420288	819.1140137	816.9550171	817.9799805	820.2000122	813.757019	806.9730225	797.2520142	797.3209839	800.9970093	793.8880005	808.9169922	792.1359863	810.3850098	793.8720093	809.7589722	793.7230225	810.3280029	802.0219727	793.6790161	793.7960205	805.1640015	817.7410278	806.1879883	816.9539795	799.6079712	806.1890259	810.5809937	807.1040039	815.4359741	804.8939819	811.15802	810.4959717	816.9219971	807.0770264	827.9589844	814.0839844	806.4400024	809.4110107	824.6669922	827.8569946	830.4630127	823.4990234	805.901001	823.5139771	813.7680054	823.4810181	823.0570068	829.9199829	815.434021	819.059021	816.9190063	813.7559814	819.9840088	829.9689941	824.1300049	824.3339844	826.7559814	826.7620239	836.2719727	822.8140259	826.8380127	836.6040039	830.5310059	837.3319702	826.7559814	816.9190063	826.5139771	830.7089844	830.0189819	819.7470093	826.7719727	823.526001	830.9219971	825.4190063	828.848999	830.0419922	826.3060303	827.3549805	820.4060059	823.9160156	823.2050171	816.9190063	803.4769897	813.6380005	807.0349731	809.8619995	808.1640015	812.9550171	823.3220215	820.2009888	820.1469727	817.1099854	818.7479858	819.9249878	823.5050049	823.3950195	830.0419922	833.3049927	830.0029907	825.8319702	823.4970093	823.901001	826.3510132	819.5089722	824.4990234	826.7620239	807.1079712	805.6630249	803.6129761	799.6069946	808.5999756	808.3790283	820.2219849	797.8640137	807.5949707	819.6699829	816.302002	814.914978	818.473999	831.2600098	826.9310303	816.9229736	825.8549805	844.4169922	836.5670166	837.1630249	839.9219971	843.7540283	846.4459839	846.1110229	836.3560181	836.6040039	836.2540283	826.0629883	840.0109863	830.0419922	826.6259766	825.526001	826.651001	826.7620239	827.9000244	818.2750244	823.4810181	820.2119751	826.7620239	823.4229736	816.9190063	824.6279907	827.2449951	829.6430054	830.0419922	827.6420288	819.1140137	816.9550171	817.9799805	820.2000122	813.757019	806.9730225	797.2520142	797.3209839	800.9970093	793.8880005	808.9169922	792.1359863	810.3850098	793.8720093	809.7589722
830.0949707	826.8280029	826.210022	829.2550049	822.315979	816.3330078	827.8610229	819.7039795	826.7620239	830.3330078	822.9210205	826.7620239	806.5310059	816.4710083	807.0770264	807.0150146	820.2000122	809.6480103	810.132019	814.0549927	805.875	807.0770264	819.4749756	826.7589722	826.684021	823.2529907	827.0709839	830.0419922	816.5670166	830.0419922	826.8189697	819.9940186	814.1420288	819.8120117	820.7609863	826.9609985	827.3649902	810.0579834	806.8729858	816.9240112	810.0560303	813.0650024	809.1290283	810.8460083	806.9639893	807.4400024	806.7369995	802.1259766	797.1799927	807.2199707	801.3010254	823.5180054	830.3280029	826.8610229	833.0369873	828.9689941	830.3070068	836.9760132	841.2319946	839.8720093	846.2659912	839.8729858	833.4710083	839.8850098	816.9219971	826.7310181	829.7189941	832.8469849	823.2739868	829.6489868	830.0419922	830.4089966	822.507019	820.197998	827.026001	823.4860229	830.2650146	829.7490234	826.1480103	822.6810303	826.7750244	831.5120239	820.3109741	810.4190063	816.9240112	816.4069824	818.5599976	818.9819946	800.0670166	813.6450195	803.6849976	803.7960205	817.1970215	793.8619995	797.1719971	793.9140015	806.2249756	793.9459839	792.5360107	800.1209717	799.1599731	810.3579712	817.8829956	808.4089966	820.2009888	799.815979	803.822998	816.3969727	815.5410156	805.8359985	816.9210205	803.6870117	793.9489746	793.039978	796.7839966	802.3369751	807.6030273	820.882019	816.8129883	797.0839844	796.9320068	816.9260254	817.6539917	823.3289795	823.507019	820.7819824	818.5369873	813.6140137	816.651001	812.3449707	808.9260254	820.2109985	811.4310303	799.6110229	809.8699951	807.0869751	801.8010254	793.9349976	821.2780151	829.9899902	831.1950073	822.4559937	830.3179932	830.1060181	826.7620239	827.7869873	826.7709961	835.2130127	829.4500122	836.6439819	830.098999	830.132019	830.0949707	826.8280029	826.210022	829.2550049	822.315979	816.3330078	827.8610229	819.7039795	826.7620239	830.3330078	822.9210205	826.7620239	806.5310059	816.4710083	807.0770264	807.0150146	820.2000122	809.6480103	810.132019	814.0549927	805.875	807.0770264	819.4749756	826.7589722	826.684021	823.2529907	827.0709839	830.0419922	816.5670166	830.0419922	826.8189697	819.9940186	814.1420288	819.8120117	820.7609863	826.9609985	827.3649902	810.0579834	806.8729858	816.9240112	810.0560303	813.0650024	809.1290283	810.8460083	806.9639893	807.4400024	806.7369995	802.1259766	797.1799927	807.2199707	801.3010254	823.5180054	830.3280029	826.8610229	833.0369873	828.9689941	830.3070068	836.9760132	841.2319946	839.8720093	846.2659912	839.8729858	833.4710083	839.8850098	816.9219971	826.7310181	829.7189941	832.8469849	823.2739868	829.6489868	830.0419922	830.4089966	822.507019	820.197998	827.026001	823.4860229	830.2650146	829.7490234	826.1480103	822.6810303	826.7750244	831.5120239	820.3109741	810.4190063	816.9240112	816.4069824	818.5599976	818.9819946	800.0670166	813.6450195	803.6849976	803.7960205	817.1970215	793.8619995	797.1719971	793.9140015	806.2249756	793.9459839	792.5360107
826.7650146	827.8629761	829.723999	820.7349854	826.6779785	814.1220093	834.4240112	831.2600098	819.4790039	828.2860107	823.5209961	813.5410156	813.190979	816.9229736	816.6970215	801.0159912	802.0289917	814.0859985	802.2059937	812.2199707	813.7269897	823.8779907	817.5349731	820.0770264	820.2109985	827.1859741	833.6900024	829.6430054	828.9559937	839.9639893	827.4249878	837.9169922	823.2789917	819.4310303	822.7210083	827.132019	822.7340088	816.9199829	814.1519775	793.8989868	796.8770142	801.2550049	790.6519775	810.3330078	804.7360229	803.7990112	813.0999756	803.7930298	803.8850098	800.1939697	820.309021	817.1389771	816.4039917	816.9240112	823.4810181	819.8259888	826.9240112	840.6489868	835.7030029	846.3950195	840.6489868	839.8469849	836.6140137	833.2390137	832.8569946	842.7990112	832.2680054	839.8850098	830.0419922	829.4879761	820.2000122	820.2000122	834.4429932	826.3850098	830.4229736	830.7080078	832.875	843.1630249	827.3989868	826.8309937	829.5079956	823.414978	829.697998	823.3939819	815.0889893	824.6149902	810.4420166	819.2960205	823.2930298	810.4550171	812.664978	799.8010254	799.5410156	802.1870117	803.1619873	803.7020264	806.2739868	814.3950195	807.0789795	805.9760132	820.2210083	810.0629883	801.3280029	801.2919922	809.2769775	809.4050293	803.776001	816.9229736	790.8060303	793.6500244	797.3850098	806.6339722	793.7730103	799.8930054	793.90802	815.9160156	791.1069946	820.5800171	810.3579712	799.6110229	810.3850098	810.1380005	816.5670166	820.210022	813.8790283	807.5910034	805.6420288	810.1359863	810.367981	814.3109741	811.3790283	809.2659912	801.4699707	818.565979	808.3790283	807.1359863	813.2459717	820.1699829	819.9730225	816.9229736	826.7319946	829.6959839	830.0419922	834.0709839	832.802002	826.7620239	830.6400146	833.2399902	843.3729858	836.4569702	830.6790161	822.7260132	826.7650146	827.8629761	829.723999	820.7349854	826.6779785	814.1220093	834.4240112	831.2600098	819.4790039	828.2860107	823.5209961	813.5410156	813.190979	816.9229736	816.6970215	801.0159912	802.0289917	814.0859985	802.2059937	812.2199707	813.7269897	823.8779907	817.5349731	820.0770264	820.2109985	827.1859741	833.6900024	829.6430054	828.9559937	839.9639893	827.4249878	837.9169922	823.2789917	819.4310303	822.7210083	827.132019	822.7340088	816.9199829	814.1519775	793.8989868	796.8770142	801.2550049	790.6519775	810.3330078	804.7360229	803.7990112	813.0999756	803.7930298	803.8850098	800.1939697	820.309021	817.1389771	816.4039917	816.9240112	823.4810181	819.8259888	826.9240112	840.6489868	835.7030029	846.3950195	840.6489868	839.8469849	836.6140137	833.2390137	832.8569946	842.7990112	832.2680054	839.8850098	830.0419922	829.4879761	820.2000122	820.2000122	834.4429932	826.3850098	830.4229736	830.7080078	832.875	843.1630249	827.3989868	826.8309937	829.5079956	823.414978	829.697998	823.3939819	815.0889893	824.6149902	810.4420166	819.2960205	823.2930298	810.4550171	812.664978	799.8010254	799.5410156	802.1870117	803.1619873	803.7020264	806.2739868	814.3950195	807.0789795
818.5059814	816.5789795	833.559021	830.0419922	823.1749878	824.5289917	819.8989868	828.3300171	823.5040283	813.8809814	827.8590088	830.0419922	822.1469727	826.7680054	813.8969727	823.2869873	800.2000122	799.5549927	823.3029785	807.5150146	819.2219849	826.9390259	823.1090088	823.6740112	826.7620239	826.1760254	836.6040039	823.2659912	827.4650269	826.065979	827.1779785	830.3989868	826.2399902	824.6300049	823.802002	816.9390259	816.9780273	810.2839966	820.1630249	798.4899902	793.7730103	797.9130249	801.8469849	801.2550049	799.5980225	810.4240112	808.6610107	806.9110107	806.2750244	805.6719971	806.9509888	813.690979	833.3530273	828.5980225	826.7620239	827.3649902	828.125	835.8309937	831.6929932	839.8850098	833.4099731	839.8829956	842.2219849	833.1469727	839.7839966	846.4459839	836.6040039	837.0209961	839.8850098	830.0479736	827.7550049	830.0889893	820.2000122	823.4810181	826.0599976	830.0419922	845.5079956	823.3909912	836.5910034	826.0960083	830.7080078	827.7949829	830.2780151	816.9229736	820.7849731	827.2039795	820.2000122	827.2069702	813.0609741	806.7050171	797.1300049	817.7540283	816.9249878	807.0770264	793.9140015	810.0310059	804.6329956	809.125	810.3579712	810.3579712	803.8410034	810.5770264	805.9310303	797.8579712	810.6049805	800.0490112	803.7960205	807.2800293	803.7969971	810.3579712	796.6199951	796.8339844	810.6459961	805.6710205	801.789978	806.9819946	807.1409912	810.0629883	798.9160156	810.9920044	793.8740234	817.9140015	800.2620239	816.4030151	803.9359741	815.2260132	797.2189941	796.8859863	791.934021	813.2310181	806.9680176	817.309021	805.9680176	806.9550171	824.5739746	816.9260254	816.9229736	823.28302	816.9229736	826.1389771	833.1400146	833.4699707	829.1129761	836.6229858	839.809021	838.8480225	833.4589844	840.1279907	829.8800049	843.5560303	823.7310181	827.0319824	818.5059814	816.5789795	833.559021	830.0419922	823.1749878	824.5289917	819.8989868	828.3300171	823.5040283	813.8809814	827.8590088	830.0419922	822.1469727	826.7680054	813.8969727	823.2869873	800.2000122	799.5549927	823.3029785	807.5150146	819.2219849	826.9390259	823.1090088	823.6740112	826.7620239	826.1760254	836.6040039	823.2659912	827.4650269	826.065979	827.1779785	830.3989868	826.2399902	824.6300049	823.802002	816.9390259	816.9780273	810.2839966	820.1630249	798.4899902	793.7730103	797.9130249	801.8469849	801.2550049	799.5980225	810.4240112	808.6610107	806.9110107	806.2750244	805.6719971	806.9509888	813.690979	833.3530273	828.5980225	826.7620239	827.3649902	828.125	835.8309937	831.6929932	839.8850098	833.4099731	839.8829956	842.2219849	833.1469727	839.7839966	846.4459839	836.6040039	837.0209961	839.8850098	830.0479736	827.7550049	830.0889893	820.2000122	823.4810181	826.0599976	830.0419922	845.5079956	823.3909912	836.5910034	826.0960083	830.7080078	827.7949829	830.2780151	816.9229736	820.7849731	827.2039795	820.2000122	827.2069702	813.0609741	806.7050171	797.1300049	817.7540283	816.9249878	807.0770264	793.9140015	810.0310059	804.6329956	809.125	810.3579712
826.7990112	831.6890259	832.1820068	831.3729858	817.6589966	820.2059937	826.302002	817.1480103	823.4609985	826.7639771	813.4799805	820.5869751	823.4959717	808.8870239	814.1660156	813.9660034	802.1519775	810.1309814	813.6149902	821.8250122	824.1829834	827.0120239	823.4810181	824.1099854	826.7780151	820.4749756	826.7030029	830.2839966	839.5880127	833.322998	833.348999	830.0419922	826.7620239	830.0419922	820.473999	830.0700073	830.2219849	822.2630005	820.2000122	803.7960205	793.7050171	805.8040161	809.8610229	805.9039917	810.1409912	801.0230103	797.2639771	806.9520264	801.242981	820.1539917	807.5089722	816.9979858	826.7620239	820.6790161	826.1040039	831.1259766	830.5059814	830.0419922	830.0089722	840.6409912	830.0419922	835.776001	835.2080078	835.1900024	833.2849731	826.677002	840.0430298	834.8220215	840.5620117	832.1740112	825.0310059	826.302002	836.2219849	826.3189697	826.5490112	830.0289917	832.6040039	834.4520264	816.2800293	833.6970215	829.5960083	826.7130127	822.8029785	836.1989746	822.6610107	830.0609741	827.4559937	829.3439941	817.315979	814.2150269	813.6380005	820.6950073	807.1939697	803.5380249	807.3549805	793.901001	793.8829956	810.1380005	816.9229736	816.5930176	811.1389771	823.414978	810.4190063	810.2670288	804.835022	806.1229858	800.0499878	810.3579712	799.5789795	804.2210083	797.098999	806.5570068	796.9359741	807.7739868	793.9489746	801.2379761	816.9260254	803.7960205	793.8950195	817.914978	810.5900269	823.9169922	796.8920288	797.6859741	802.4290161	799.5510254	806.1829834	793.8220215	805.6430054	810.4580078	802.0380249	812.6970215	809.7579956	817.0050049	815.3809814	816.9229736	821.375	813.0200195	816.8880005	834.0180054	830.6370239	836.7930298	833.1279907	839.8850098	831.7080078	835.0650024	839.8850098	833.2529907	829.9710083	830.085022	840.3989868	829.4879761	826.7990112	831.6890259	832.1820068	831.3729858	817.6589966	820.2059937	826.302002	817.1480103	823.4609985	826.7639771	813.4799805	820.5869751	823.4959717	808.8870239	814.1660156	813.9660034	802.1519775	810.1309814	813.6149902	821.8250122	824.1829834	827.0120239	823.4810181	824.1099854	826.7780151	820.4749756	826.7030029	830.2839966	839.5880127	833.322998	833.348999	830.0419922	826.7620239	830.0419922	820.473999	830.0700073	830.2219849	822.2630005	820.2000122	803.7960205	793.7050171	805.8040161	809.8610229	805.9039917	810.1409912	801.0230103	797.2639771	806.9520264	801.242981	820.1539917	807.5089722	816.9979858	826.7620239	820.6790161	826.1040039	831.1259766	830.5059814	830.0419922	830.0089722	840.6409912	830.0419922	835.776001	835.2080078	835.1900024	833.2849731	826.677002	840.0430298	834.8220215	840.5620117	832.1740112	825.0310059	826.302002	836.2219849	826.3189697	826.5490112	830.0289917	832.6040039	834.4520264	816.2800293	833.6970215	829.5960083	826.7130127	822.8029785	836.1989746	822.6610107	830.0609741	827.4559937	829.3439941	817.315979	814.2150269	813.6380005	820.6950073	807.1939697	803.5380249	807.3549805	793.901001	793.8829956	810.1380005	816.9229736
826.7620239	836.6350098	830.6719971	820.4509888	826.9899902	830.210022	832.5949707	830.0419922	820.4710083	820.0969849	816.9190063	806.9279785	823.4990234	826.7620239	816.190979	807.2199707	817.4050293	813.8540039	813.6380005	816.9190063	823.3610229	820.5469971	824.5239868	830.6749878	832.4879761	835.7650146	833.5599976	830.2109985	833.1710205	836.6740112	826.6190186	829.6480103	830.0419922	823.9959717	829.4370117	827.9580078	826.7620239	809.8540039	826.7620239	816.4699707	817.3380127	793.7659912	793.9790039	801.960022	804.6279907	797.0150146	809.3930054	816.9219971	816.9219971	819.6929932	802.1820068	819.6259766	812.507019	810.7730103	817.2000122	826.3380127	823.4810181	826.7620239	836.8610229	837.1010132	836.8610229	843.7340088	836.6090088	846.552002	840.039978	835.2789917	839.8850098	840.4060059	839.8540039	845.2080078	830.1560059	830.0419922	841.1920166	833.7280273	836.1279907	834.4290161	830.2000122	836.559021	826.7620239	832.7860107	830.0419922	826.7620239	826.71698	830.0419922	839.822998	829.0349731	830.0529785	820.2069702	828.4459839	820.2050171	823.5269775	814.117981	807.3560181	817.9920044	807.9240112	793.8920288	807.2800293	810.5770264	820.2000122	823.2670288	806.9569702	823.1380005	803.9359741	807.5460205	803.4769897	792.1129761	811.9520264	799.6090088	806.5620117	804.3010254	806.6870117	793.6259766	801.2399902	799.9699707	809.5180054	803.9799805	820.1519775	807.5059814	797.1290283	802.2059937	807.0770264	824.1359863	802.2059937	820.2000122	817.757019	818.0770264	801.7890015	807.4550171	806.9089966	803.6749878	811.4879761	806.197998	809.8779907	807.9860229	822.0310059	821.3619995	822.9089966	823.2080078	820.2000122	824.5360107	829.8280029	840.0280151	843.5980225	843.4899902	839.8850098	832.9089966	835.9630127	830.4110107	833.5609741	841.7730103	842.2650146	831.4000244	826.7620239	836.6350098	830.6719971	820.4509888	826.9899902	830.210022	832.5949707	830.0419922	820.4710083	820.0969849	816.9190063	806.9279785	823.4990234	826.7620239	816.190979	807.2199707	817.4050293	813.8540039	813.6380005	816.9190063	823.3610229	820.5469971	824.5239868	830.6749878	832.4879761	835.7650146	833.5599976	830.2109985	833.1710205	836.6740112	826.6190186	829.6480103	830.0419922	823.9959717	829.4370117	827.9580078	826.7620239	809.8540039	826.7620239	816.4699707	817.3380127	793.7659912	793.9790039	801.960022	804.6279907	797.0150146	809.3930054	816.9219971	816.9219971	819.6929932	802.1820068	819.6259766	812.507019	810.7730103	817.2000122	826.3380127	823.4810181	826.7620239	836.8610229	837.1010132	836.8610229	843.7340088	836.6090088	846.552002	840.039978	835.2789917	839.8850098	840.4060059	839.8540039	845.2080078	830.1560059	830.0419922	841.1920166	833.7280273	836.1279907	834.4290161	830.2000122	836.559021	826.7620239	832.7860107	830.0419922	826.7620239	826.71698	830.0419922	839.822998	829.0349731	830.0529785	820.2069702	828.4459839	820.2050171	823.5269775	814.117981	807.3560181	817.9920044	807.9240112	793.8920288	807.2800293	810.5770264	820.2000122
